0.909, 0.904, 0.902, 0.902, 0.903.
0.906, 0.902, 0.899, 0.899, 0.899.
0.909, 0.909, 0.909, 0.909, 0.909.
0.901, 0.899, 0.899, 0.899, 0.899.
0.875, 0.863, 0.857, 0.854, 0.854.
0.873, 0.873, 0.873, 0.873, 0.873.
0.907, 0.915, 0.919, 0.919, 0.919.
0.927, 0.929, 0.929, 0.929, 0.929.
0.921, 0.921, 0.921, 0.921, 0.921.
0.907, 0.906, 0.907, 0.907, 0.907.
0.889, 0.885, 0.885, 0.885, 0.885.
0.885, 0.885, 0.885, 0.885, 0.885.
0.897, 0.902, 0.906, 0.907, 0.907.
0.912, 0.916, 0.919, 0.922, 0.924.
0.927, 0.932, 0.934, 0.934, 0.934.
0.912, 0.912, 0.912, 0.912, 0.912.
0.913, 0.913, 0.913, 0.913, 0.913.
0.912, 0.912, 0.912, 0.912, 0.912.
0.907, 0.907, 0.907, 0.907, 0.906.
0.898, 0.897, 0.899, 0.899, 0.899.
0.869, 0.862, 0.857, 0.854, 0.854.
0.915, 0.916, 0.916, 0.916, 0.916.
0.916, 0.916, 0.916, 0.916, 0.916.
0.912, 0.912, 0.912, 0.912, 0.912.
0.902, 0.899, 0.899, 0.899, 0.899.
0.912, 0.912, 0.912, 0.912, 0.912.
0.918, 0.918, 0.918, 0.918, 0.918.
0.913, 0.912, 0.912, 0.912, 0.912.
0.916, 0.916, 0.916, 0.916, 0.916.
0.939, 0.942, 0.942, 0.942, 0.942.
0.934, 0.934, 0.934, 0.934, 0.934.
0.938, 0.936, 0.933, 0.932, 0.932.
0.946, 0.946, 0.946, 0.946, 0.946.
0.944, 0.944, 0.944, 0.944, 0.944.
0.942, 0.942, 0.942, 0.942, 0.942.
0.938, 0.938, 0.938, 0.938, 0.937.
0.931, 0.931, 0.931, 0.931, 0.931.
0.907, 0.899, 0.896, 0.896, 0.896.
0.889, 0.879, 0.875, 0.875, 0.875.
0.892, 0.892, 0.892, 0.892, 0.892.
0.904, 0.909, 0.913, 0.915, 0.916.
0.918, 0.923, 0.926, 0.928, 0.928.
0.915, 0.916, 0.916, 0.916, 0.916.
0.899, 0.899, 0.901, 0.904, 0.905.
0.875, 0.871, 0.871, 0.871, 0.871.
0.857, 0.853, 0.852, 0.852, 0.854.
0.83, 0.821, 0.816, 0.816, 0.818.
0.803, 0.795, 0.798, 0.803, 0.811.
0.799, 0.799, 0.801, 0.805, 0.811.
0.83, 0.848, 0.862, 0.871, 0.878.
0.871, 0.892, 0.901, 0.904, 0.905.
0.904, 0.917, 0.923, 0.926, 0.928.
0.927, 0.934, 0.937, 0.938, 0.938.
0.941, 0.945, 0.946, 0.946, 0.944.
0.936, 0.937, 0.937, 0.937, 0.936.
0.935, 0.934, 0.932, 0.928, 0.922.
0.937, 0.936, 0.934, 0.932, 0.928.
0.932, 0.928, 0.923, 0.919, 0.916.
0.921, 0.915, 0.909, 0.903, 0.899.
0.921, 0.919, 0.918, 0.918, 0.918.
0.907, 0.902, 0.899, 0.899, 0.9.
0.894, 0.892, 0.892, 0.892, 0.892.
0.901, 0.903, 0.903, 0.903, 0.903.
0.906, 0.907, 0.907, 0.907, 0.906.
0.908, 0.909, 0.909, 0.909, 0.907.
0.891, 0.885, 0.881, 0.875, 0.869.
0.894, 0.894, 0.894, 0.894, 0.894.
0.857, 0.843, 0.835, 0.832, 0.832.
0.838, 0.825, 0.816, 0.811, 0.811.
0.834, 0.832, 0.832, 0.832, 0.832.
0.84, 0.842, 0.845, 0.849, 0.854.
0.83, 0.837, 0.845, 0.852, 0.859.
0.811, 0.811, 0.817, 0.826, 0.837.
0.811, 0.817, 0.826, 0.837, 0.847.
0.82, 0.827, 0.837, 0.847, 0.854.
0.809, 0.811, 0.813, 0.814, 0.814.
0.811, 0.811, 0.811, 0.811, 0.811.
0.854, 0.869, 0.875, 0.875, 0.871.
0.84, 0.842, 0.842, 0.842, 0.842.
0.829, 0.826, 0.826, 0.826, 0.826.
0.83, 0.832, 0.832, 0.832, 0.832.
0.845, 0.845, 0.845, 0.845, 0.845.
0.833, 0.832, 0.832, 0.832, 0.832.
0.833, 0.832, 0.832, 0.832, 0.832.
0.85, 0.854, 0.854, 0.854, 0.854.
0.834, 0.832, 0.832, 0.832, 0.832.
0.817, 0.811, 0.811, 0.811, 0.811.
0.813, 0.811, 0.811, 0.811, 0.811.
0.811, 0.811, 0.811, 0.811, 0.811.
0.745, 0.722, 0.711, 0.711, 0.711.
0.743, 0.742, 0.742, 0.742, 0.742.
0.749, 0.746, 0.745, 0.745, 0.745.
0.768, 0.776, 0.778, 0.778, 0.778.
0.767, 0.768, 0.768, 0.768, 0.768.
0.761, 0.762, 0.763, 0.765, 0.768.
0.746, 0.745, 0.745, 0.745, 0.745.
0.742, 0.742, 0.742, 0.742, 0.742.
0.739, 0.741, 0.742, 0.742, 0.742.
0.763, 0.776, 0.787, 0.796, 0.801.
0.789, 0.801, 0.805, 0.805, 0.805.
0.801, 0.805, 0.805, 0.805, 0.805.
0.793, 0.794, 0.796, 0.798, 0.798.
0.801, 0.804, 0.805, 0.805, 0.805.
0.798, 0.798, 0.798, 0.798, 0.798.
0.826, 0.831, 0.832, 0.832, 0.832.
0.813, 0.811, 0.811, 0.811, 0.811.
0.797, 0.796, 0.798, 0.798, 0.798.
0.776, 0.768, 0.761, 0.757, 0.757.
0.767, 0.767, 0.767, 0.767, 0.767.
0.803, 0.812, 0.816, 0.816, 0.815.
0.817, 0.823, 0.826, 0.826, 0.826.
0.781, 0.771, 0.767, 0.767, 0.768.
0.811, 0.816, 0.817, 0.817, 0.817.
0.811, 0.811, 0.811, 0.811, 0.811.
0.854, 0.863, 0.865, 0.865, 0.865.
0.811, 0.806, 0.805, 0.805, 0.805.
0.787, 0.776, 0.768, 0.763, 0.763.
0.811, 0.811, 0.811, 0.811, 0.811.
0.797, 0.798, 0.801, 0.805, 0.809.
0.781, 0.781, 0.787, 0.798, 0.809.
0.763, 0.763, 0.768, 0.778, 0.789.
0.789, 0.798, 0.803, 0.805, 0.805.
0.812, 0.826, 0.837, 0.842, 0.842.
0.821, 0.826, 0.826, 0.826, 0.826.
0.855, 0.862, 0.864, 0.864, 0.864.
0.881, 0.885, 0.885, 0.885, 0.885.
0.892, 0.894, 0.894, 0.894, 0.894.
0.915, 0.918, 0.918, 0.918, 0.918.
0.912, 0.909, 0.906, 0.902, 0.899.
0.931, 0.932, 0.932, 0.932, 0.932.
0.942, 0.942, 0.942, 0.942, 0.942.
0.942, 0.942, 0.942, 0.942, 0.942.
0.936, 0.933, 0.932, 0.932, 0.932.
0.916, 0.907, 0.904, 0.904, 0.905.
0.907, 0.904, 0.903, 0.903, 0.903.
0.902, 0.899, 0.899, 0.899, 0.899.
0.899, 0.899, 0.899, 0.899, 0.899.
0.898, 0.899, 0.901, 0.904, 0.905.
0.891, 0.892, 0.894, 0.897, 0.899.
0.881, 0.881, 0.882, 0.882, 0.882.
0.868, 0.863, 0.862, 0.862, 0.862.
0.899, 0.903, 0.906, 0.907, 0.907.
0.933, 0.939, 0.939, 0.939, 0.939.
0.927, 0.928, 0.928, 0.928, 0.928.
0.919, 0.918, 0.918, 0.918, 0.918.
0.921, 0.921, 0.921, 0.921, 0.921.
0.928, 0.928, 0.928, 0.928, 0.928.
0.932, 0.931, 0.931, 0.931, 0.931.
0.933, 0.932, 0.932, 0.932, 0.932.
0.939, 0.941, 0.941, 0.941, 0.941.
0.941, 0.941, 0.941, 0.941, 0.941.
0.951, 0.951, 0.951, 0.951, 0.949.
0.951, 0.951, 0.951, 0.951, 0.949.
0.944, 0.942, 0.941, 0.938, 0.934.
0.934, 0.928, 0.923, 0.919, 0.916.
0.928, 0.922, 0.918, 0.916, 0.916.
0.909, 0.899, 0.892, 0.887, 0.885.
0.886, 0.875, 0.871, 0.871, 0.871.
0.869, 0.863, 0.862, 0.862, 0.862.
0.871, 0.872, 0.873, 0.873, 0.873.
0.885, 0.894, 0.901, 0.905, 0.907.
0.893, 0.899, 0.901, 0.904, 0.905.
0.901, 0.905, 0.907, 0.907, 0.906.
0.903, 0.905, 0.905, 0.905, 0.905.
0.899, 0.899, 0.899, 0.899, 0.899.
0.886, 0.885, 0.885, 0.885, 0.885.
0.854, 0.844, 0.842, 0.842, 0.845.
0.85, 0.848, 0.848, 0.852, 0.859.
0.843, 0.842, 0.842, 0.842, 0.842.
0.85, 0.854, 0.859, 0.863, 0.868.
0.857, 0.859, 0.859, 0.859, 0.859.
0.852, 0.852, 0.853, 0.853, 0.853.
0.847, 0.847, 0.847, 0.847, 0.847.
0.846, 0.846, 0.846, 0.846, 0.846.
0.846, 0.846, 0.846, 0.846, 0.846.
0.846, 0.846, 0.846, 0.846, 0.846.
0.847, 0.846, 0.846, 0.846, 0.846.
0.767, 0.747, 0.734, 0.729, 0.729.
0.702, 0.674, 0.666, 0.666, 0.674.
0.729, 0.729, 0.729, 0.729, 0.729.
0.735, 0.745, 0.755, 0.767, 0.778.
0.729, 0.729, 0.729, 0.729, 0.729.
0.756, 0.776, 0.791, 0.801, 0.804.
0.768, 0.786, 0.801, 0.811, 0.817.
0.768, 0.768, 0.767, 0.767, 0.767.
0.767, 0.768, 0.768, 0.767, 0.767.
0.763, 0.763, 0.763, 0.763, 0.763.
0.762, 0.763, 0.763, 0.763, 0.763.
0.768, 0.768, 0.768, 0.768, 0.768.
0.739, 0.732, 0.732, 0.732, 0.732.
0.722, 0.713, 0.711, 0.711, 0.713.
0.727, 0.729, 0.731, 0.731, 0.732.
0.699, 0.699, 0.699, 0.699, 0.699.
0.692, 0.695, 0.701, 0.705, 0.708.
0.704, 0.714, 0.722, 0.727, 0.729.
0.729, 0.745, 0.757, 0.763, 0.763.
0.742, 0.753, 0.757, 0.757, 0.757.
0.758, 0.763, 0.763, 0.763, 0.763.
0.781, 0.785, 0.785, 0.785, 0.785.
0.793, 0.796, 0.798, 0.798, 0.798.
0.793, 0.796, 0.798, 0.798, 0.798.
0.767, 0.763, 0.763, 0.763, 0.763.
0.661, 0.647, 0.646, 0.653, 0.667.
0.538, 0.505, 0.499, 0.5, 0.52.
0.574, 0.587, 0.603, 0.617, 0.635.
0.504, 0.495, 0.502, 0.52, 0.542.
0.533, 0.549, 0.574, 0.603, 0.622.
0.499, 0.502, 0.514, 0.525, 0.533.
0.574, 0.603, 0.613, 0.617, 0.617.
0.638, 0.674, 0.697, 0.701, 0.699.
0.696, 0.723, 0.733, 0.733, 0.732.
0.753, 0.763, 0.763, 0.763, 0.763.
0.757, 0.757, 0.757, 0.757, 0.757.
0.763, 0.763, 0.763, 0.763, 0.763.
0.749, 0.743, 0.742, 0.742, 0.742.
0.713, 0.702, 0.697, 0.699, 0.701.
0.729, 0.729, 0.732, 0.742, 0.757.
0.735, 0.742, 0.753, 0.767, 0.778.
0.73, 0.742, 0.757, 0.768, 0.772.
0.722, 0.723, 0.726, 0.729, 0.729.
0.699, 0.699, 0.703, 0.705, 0.705.
0.699, 0.699, 0.699, 0.699, 0.699.
0.722, 0.729, 0.731, 0.731, 0.729.
0.735, 0.742, 0.743, 0.743, 0.742.
0.688, 0.667, 0.647, 0.633, 0.626.
0.591, 0.548, 0.525, 0.52, 0.526.
0.561, 0.546, 0.538, 0.538, 0.546.
0.549, 0.538, 0.538, 0.546, 0.563.
0.565, 0.574, 0.589, 0.611, 0.635.
0.574, 0.584, 0.6, 0.617, 0.635.
0.591, 0.611, 0.633, 0.657, 0.679.
0.603, 0.624, 0.643, 0.657, 0.667.
0.71, 0.742, 0.763, 0.776, 0.778.
0.758, 0.786, 0.801, 0.801, 0.799.
0.742, 0.743, 0.743, 0.743, 0.742.
0.758, 0.763, 0.763, 0.763, 0.763.
0.742, 0.742, 0.742, 0.742, 0.742.
0.591, 0.554, 0.538, 0.538, 0.548.
0.647, 0.657, 0.667, 0.678, 0.689.
0.753, 0.786, 0.808, 0.819, 0.824.
0.729, 0.742, 0.753, 0.757, 0.757.
0.699, 0.702, 0.711, 0.717, 0.723.
0.667, 0.657, 0.657, 0.657, 0.657.
0.602, 0.573, 0.563, 0.563, 0.567.
0.574, 0.559, 0.548, 0.538, 0.533.
0.505, 0.488, 0.481, 0.476, 0.474.
0.488, 0.481, 0.481, 0.491, 0.503.
0.526, 0.533, 0.538, 0.543, 0.548.
0.675, 0.706, 0.719, 0.727, 0.731.
0.72, 0.747, 0.763, 0.768, 0.767.
0.722, 0.723, 0.722, 0.722, 0.723.
0.708, 0.702, 0.699, 0.699, 0.701.
0.786, 0.802, 0.804, 0.803, 0.8.
0.775, 0.775, 0.775, 0.778, 0.778.
0.763, 0.762, 0.763, 0.763, 0.763.
0.749, 0.743, 0.742, 0.742, 0.742.
0.735, 0.729, 0.727, 0.727, 0.723.
0.749, 0.753, 0.757, 0.757, 0.757.
0.733, 0.732, 0.732, 0.732, 0.732.
0.733, 0.732, 0.732, 0.732, 0.732.
0.714, 0.713, 0.717, 0.722, 0.723.
0.657, 0.647, 0.646, 0.646, 0.644.
0.644, 0.638, 0.638, 0.638, 0.638.
0.681, 0.695, 0.703, 0.705, 0.705.
0.753, 0.768, 0.768, 0.763, 0.757.
0.843, 0.858, 0.858, 0.851, 0.842.
0.783, 0.762, 0.743, 0.732, 0.729.
0.817, 0.817, 0.816, 0.816, 0.817.
0.867, 0.873, 0.873, 0.872, 0.869.
0.872, 0.873, 0.873, 0.873, 0.873.
0.864, 0.863, 0.862, 0.862, 0.862.
0.825, 0.808, 0.799, 0.799, 0.801.
0.843, 0.845, 0.845, 0.845, 0.845.
0.812, 0.801, 0.799, 0.803, 0.807.
0.763, 0.753, 0.753, 0.757, 0.763.
0.796, 0.802, 0.806, 0.809, 0.811.
0.843, 0.857, 0.862, 0.863, 0.862.
0.875, 0.882, 0.882, 0.879, 0.871.
0.882, 0.882, 0.879, 0.875, 0.869.
0.864, 0.859, 0.852, 0.844, 0.838.
0.857, 0.852, 0.846, 0.842, 0.838.
0.857, 0.855, 0.853, 0.853, 0.853.
0.833, 0.824, 0.816, 0.811, 0.811.
0.801, 0.796, 0.798, 0.803, 0.811.
0.734, 0.711, 0.706, 0.713, 0.723.
0.706, 0.699, 0.706, 0.722, 0.739.
0.729, 0.745, 0.767, 0.789, 0.803.
0.657, 0.652, 0.657, 0.667, 0.687.
0.632, 0.633, 0.646, 0.667, 0.694.
0.664, 0.694, 0.719, 0.741, 0.757.
0.719, 0.757, 0.784, 0.796, 0.798.
0.729, 0.745, 0.757, 0.763, 0.763.
0.729, 0.731, 0.731, 0.731, 0.729.
0.733, 0.732, 0.732, 0.732, 0.732.
0.786, 0.801, 0.804, 0.804, 0.805.
0.852, 0.863, 0.863, 0.863, 0.863.
0.857, 0.863, 0.864, 0.864, 0.864.
0.859, 0.859, 0.859, 0.859, 0.859.
0.846, 0.845, 0.845, 0.846, 0.846.
0.835, 0.832, 0.832, 0.832, 0.832.
0.842, 0.845, 0.846, 0.846, 0.846.
0.857, 0.857, 0.857, 0.857, 0.857.
0.857, 0.857, 0.857, 0.857, 0.853.
0.846, 0.842, 0.838, 0.832, 0.823.
0.839, 0.832, 0.822, 0.811, 0.801.
0.844, 0.844, 0.844, 0.844, 0.844.
0.853, 0.853, 0.853, 0.853, 0.853.
0.875, 0.875, 0.875, 0.875, 0.875.
0.915, 0.919, 0.919, 0.919, 0.918.
0.891, 0.885, 0.879, 0.875, 0.875.
0.887, 0.881, 0.875, 0.875, 0.875.
0.879, 0.875, 0.875, 0.875, 0.875.
0.843, 0.835, 0.832, 0.832, 0.832.
0.811, 0.801, 0.799, 0.803, 0.811.
0.776, 0.768, 0.768, 0.776, 0.789.
0.772, 0.778, 0.789, 0.801, 0.811.
0.702, 0.695, 0.701, 0.711, 0.723.
0.602, 0.574, 0.563, 0.574, 0.597.
0.723, 0.757, 0.781, 0.796, 0.803.
0.753, 0.778, 0.794, 0.801, 0.801.
0.843, 0.867, 0.879, 0.882, 0.882.
0.85, 0.857, 0.857, 0.857, 0.857.
0.839, 0.838, 0.838, 0.838, 0.838.
0.85, 0.852, 0.852, 0.852, 0.852.
0.877, 0.882, 0.885, 0.885, 0.885.
0.885, 0.885, 0.885, 0.885, 0.885.
0.893, 0.895, 0.897, 0.897, 0.897.
0.901, 0.904, 0.905, 0.905, 0.905.
0.918, 0.922, 0.924, 0.924, 0.922.
0.912, 0.912, 0.912, 0.912, 0.912.
0.913, 0.913, 0.913, 0.913, 0.911.
0.915, 0.915, 0.915, 0.915, 0.913.
0.915, 0.915, 0.915, 0.913, 0.908.
0.916, 0.915, 0.913, 0.911, 0.907.
0.911, 0.907, 0.902, 0.899, 0.899.
0.913, 0.912, 0.912, 0.912, 0.912.
0.904, 0.899, 0.897, 0.896, 0.896.
0.899, 0.899, 0.899, 0.899, 0.899.
0.898, 0.899, 0.899, 0.899, 0.899.
0.905, 0.907, 0.907, 0.907, 0.907.
0.899, 0.899, 0.899, 0.899, 0.899.
0.897, 0.897, 0.897, 0.897, 0.897.
0.906, 0.907, 0.907, 0.907, 0.907.
0.913, 0.913, 0.913, 0.913, 0.913.
0.906, 0.906, 0.906, 0.906, 0.906.
0.906, 0.907, 0.907, 0.907, 0.907.
0.898, 0.897, 0.897, 0.899, 0.9.
0.875, 0.871, 0.871, 0.871, 0.871.
0.885, 0.885, 0.885, 0.885, 0.885.
0.894, 0.899, 0.903, 0.906, 0.906.
0.896, 0.897, 0.897, 0.897, 0.897.
0.897, 0.897, 0.897, 0.897, 0.897.
0.926, 0.932, 0.934, 0.934, 0.932.
0.918, 0.918, 0.918, 0.918, 0.918.
0.916, 0.916, 0.916, 0.916, 0.916.
0.913, 0.913, 0.913, 0.913, 0.913.
0.914, 0.914, 0.914, 0.914, 0.913.
0.913, 0.913, 0.913, 0.913, 0.913.
0.894, 0.889, 0.885, 0.885, 0.885.
0.878, 0.869, 0.864, 0.862, 0.863.
0.882, 0.882, 0.882, 0.882, 0.882.
0.875, 0.875, 0.875, 0.875, 0.875.
0.865, 0.863, 0.863, 0.863, 0.863.
0.85, 0.852, 0.854, 0.854, 0.854.
0.827, 0.823, 0.823, 0.823, 0.823.
0.832, 0.832, 0.832, 0.832, 0.832.
0.838, 0.842, 0.845, 0.845, 0.845.
0.881, 0.895, 0.901, 0.904, 0.905.
0.882, 0.885, 0.885, 0.885, 0.885.
0.894, 0.897, 0.897, 0.897, 0.897.
0.867, 0.863, 0.863, 0.863, 0.863.
0.823, 0.813, 0.811, 0.811, 0.813.
0.811, 0.801, 0.798, 0.799, 0.801.
0.862, 0.879, 0.889, 0.896, 0.901.
0.863, 0.867, 0.869, 0.869, 0.869.
0.859, 0.859, 0.859, 0.859, 0.859.
0.857, 0.859, 0.859, 0.859, 0.859.
0.874, 0.881, 0.885, 0.885, 0.885.
0.867, 0.867, 0.867, 0.867, 0.865.
0.834, 0.825, 0.821, 0.819, 0.819.
0.747, 0.711, 0.693, 0.687, 0.687.
0.634, 0.602, 0.591, 0.597, 0.612.
0.657, 0.657, 0.657, 0.657, 0.657.
0.667, 0.679, 0.694, 0.706, 0.715.
0.723, 0.745, 0.763, 0.778, 0.791.
0.791, 0.819, 0.833, 0.838, 0.838.
0.747, 0.747, 0.746, 0.745, 0.745.
0.776, 0.791, 0.801, 0.804, 0.805.
0.81, 0.819, 0.824, 0.827, 0.829.
0.768, 0.763, 0.763, 0.763, 0.763.
0.778, 0.778, 0.778, 0.778, 0.778.
0.811, 0.817, 0.817, 0.816, 0.817.
0.852, 0.862, 0.863, 0.863, 0.863.
0.893, 0.901, 0.904, 0.905, 0.905.
0.875, 0.875, 0.875, 0.875, 0.875.
0.879, 0.881, 0.882, 0.882, 0.881.
0.893, 0.899, 0.901, 0.902, 0.903.
0.905, 0.905, 0.904, 0.902, 0.899.
0.917, 0.918, 0.915, 0.909, 0.904.
0.912, 0.912, 0.912, 0.912, 0.909.
0.904, 0.899, 0.894, 0.886, 0.875.
0.908, 0.902, 0.897, 0.894, 0.892.
0.904, 0.899, 0.896, 0.896, 0.897.
0.886, 0.876, 0.869, 0.863, 0.862.
0.894, 0.894, 0.894, 0.894, 0.894.
0.865, 0.857, 0.853, 0.853, 0.854.
0.857, 0.852, 0.852, 0.852, 0.852.
0.83, 0.821, 0.819, 0.819, 0.823.
0.801, 0.799, 0.803, 0.807, 0.811.
0.85, 0.862, 0.869, 0.871, 0.871.
0.82, 0.819, 0.819, 0.819, 0.823.
0.801, 0.796, 0.798, 0.801, 0.806.
0.82, 0.827, 0.832, 0.837, 0.842.
0.826, 0.832, 0.837, 0.842, 0.846.
0.814, 0.814, 0.814, 0.814, 0.814.
0.85, 0.862, 0.869, 0.871, 0.871.
0.898, 0.906, 0.907, 0.907, 0.907.
0.922, 0.927, 0.929, 0.929, 0.929.
0.909, 0.907, 0.907, 0.907, 0.907.
0.889, 0.885, 0.885, 0.885, 0.885.
0.878, 0.875, 0.875, 0.875, 0.875.
0.885, 0.885, 0.885, 0.885, 0.885.
0.875, 0.875, 0.875, 0.875, 0.875.
0.844, 0.835, 0.832, 0.832, 0.832.
0.834, 0.832, 0.832, 0.832, 0.832.
0.84, 0.842, 0.843, 0.843, 0.842.
0.859, 0.863, 0.865, 0.865, 0.865.
0.889, 0.899, 0.903, 0.904, 0.905.
0.897, 0.899, 0.899, 0.899, 0.899.
0.901, 0.9, 0.897, 0.894, 0.891.
0.902, 0.899, 0.897, 0.897, 0.897.
0.896, 0.896, 0.897, 0.897, 0.897.
0.878, 0.869, 0.863, 0.862, 0.863.
0.866, 0.863, 0.863, 0.863, 0.863.
0.869, 0.869, 0.869, 0.871, 0.875.
0.863, 0.863, 0.863, 0.863, 0.863.
0.862, 0.863, 0.865, 0.865, 0.865.
0.854, 0.853, 0.853, 0.853, 0.853.
0.871, 0.882, 0.892, 0.897, 0.897.
0.899, 0.906, 0.907, 0.906, 0.904.
0.907, 0.907, 0.903, 0.897, 0.891.
0.899, 0.896, 0.894, 0.891, 0.885.
0.898, 0.896, 0.896, 0.896, 0.896.
0.899, 0.899, 0.899, 0.899, 0.899.
0.898, 0.899, 0.899, 0.899, 0.899.
0.898, 0.898, 0.897, 0.897, 0.898.
0.903, 0.903, 0.903, 0.903, 0.903.
0.912, 0.913, 0.913, 0.913, 0.913.
0.923, 0.926, 0.927, 0.928, 0.928.
0.919, 0.919, 0.919, 0.919, 0.919.
0.928, 0.931, 0.932, 0.932, 0.932.
0.927, 0.928, 0.928, 0.927, 0.924.
0.928, 0.928, 0.928, 0.928, 0.928.
0.931, 0.931, 0.931, 0.931, 0.931.
0.934, 0.933, 0.932, 0.932, 0.932.
0.931, 0.931, 0.931, 0.931, 0.931.
0.929, 0.928, 0.928, 0.928, 0.928.
0.923, 0.921, 0.921, 0.921, 0.921.
0.923, 0.923, 0.923, 0.923, 0.923.
0.921, 0.921, 0.921, 0.921, 0.921.
0.926, 0.927, 0.928, 0.928, 0.928.
0.931, 0.931, 0.931, 0.931, 0.931.
0.934, 0.934, 0.933, 0.932, 0.931.
0.931, 0.931, 0.931, 0.931, 0.931.
0.935, 0.933, 0.931, 0.931, 0.931.
0.934, 0.932, 0.931, 0.931, 0.931.
0.923, 0.918, 0.916, 0.916, 0.916.
0.919, 0.918, 0.918, 0.918, 0.918.
0.915, 0.915, 0.916, 0.916, 0.916.
0.907, 0.906, 0.905, 0.905, 0.906.
0.905, 0.905, 0.905, 0.905, 0.906.
0.899, 0.899, 0.899, 0.899, 0.899.
0.893, 0.892, 0.892, 0.892, 0.892.
0.885, 0.885, 0.885, 0.885, 0.885.
0.864, 0.863, 0.863, 0.863, 0.863.
0.775, 0.764, 0.763, 0.763, 0.763.
0.702, 0.687, 0.687, 0.699, 0.711.
0.638, 0.627, 0.627, 0.633, 0.644.
0.581, 0.574, 0.583, 0.603, 0.627.
0.607, 0.617, 0.633, 0.657, 0.687.
0.652, 0.697, 0.728, 0.745, 0.757.
0.627, 0.638, 0.657, 0.679, 0.701.
0.652, 0.678, 0.701, 0.714, 0.723.
0.706, 0.733, 0.754, 0.768, 0.778.
0.799, 0.843, 0.862, 0.869, 0.871.
0.781, 0.791, 0.796, 0.798, 0.798.
0.757, 0.757, 0.757, 0.757, 0.757.
0.722, 0.707, 0.699, 0.699, 0.701.
0.745, 0.745, 0.745, 0.745, 0.745.
0.862, 0.885, 0.896, 0.901, 0.904.
0.885, 0.898, 0.902, 0.904, 0.905.
0.895, 0.901, 0.904, 0.905, 0.905.
0.879, 0.879, 0.879, 0.879, 0.875.
0.885, 0.885, 0.885, 0.885, 0.882.
0.889, 0.889, 0.885, 0.875, 0.857.
0.893, 0.894, 0.894, 0.892, 0.885.
0.857, 0.838, 0.817, 0.794, 0.772.
0.821, 0.793, 0.766, 0.742, 0.729.
0.804, 0.792, 0.783, 0.778, 0.778.
0.787, 0.776, 0.768, 0.763, 0.763.
0.732, 0.711, 0.706, 0.713, 0.723.
0.713, 0.701, 0.699, 0.701, 0.708.
0.693, 0.687, 0.696, 0.711, 0.726.
0.657, 0.657, 0.667, 0.684, 0.701.
0.581, 0.574, 0.583, 0.603, 0.622.
0.574, 0.574, 0.583, 0.596, 0.612.
0.543, 0.538, 0.538, 0.543, 0.552.
0.619, 0.657, 0.687, 0.708, 0.723.
0.642, 0.667, 0.687, 0.701, 0.708.
0.642, 0.657, 0.678, 0.699, 0.719.
0.543, 0.526, 0.526, 0.533, 0.546.
0.51, 0.499, 0.502, 0.514, 0.533.
0.543, 0.564, 0.591, 0.617, 0.638.
0.591, 0.617, 0.638, 0.657, 0.674.
0.561, 0.574, 0.591, 0.609, 0.622.
0.574, 0.589, 0.603, 0.613, 0.617.
0.653, 0.694, 0.717, 0.727, 0.729.
0.758, 0.791, 0.803, 0.804, 0.799.
0.803, 0.821, 0.824, 0.824, 0.821.
0.843, 0.845, 0.838, 0.825, 0.804.
0.859, 0.859, 0.853, 0.844, 0.832.
0.885, 0.885, 0.879, 0.869, 0.857.
0.867, 0.857, 0.843, 0.825, 0.804.
0.867, 0.857, 0.843, 0.825, 0.804.
0.875, 0.875, 0.875, 0.875, 0.872.
0.857, 0.844, 0.832, 0.819, 0.809.
0.862, 0.859, 0.854, 0.852, 0.852.
0.875, 0.875, 0.875, 0.875, 0.872.
0.875, 0.875, 0.875, 0.875, 0.872.
0.859, 0.852, 0.846, 0.842, 0.838.
0.865, 0.865, 0.865, 0.865, 0.865.
0.875, 0.875, 0.875, 0.875, 0.875.
0.858, 0.852, 0.846, 0.844, 0.844.
0.865, 0.865, 0.865, 0.865, 0.865.
0.871, 0.871, 0.871, 0.871, 0.871.
0.879, 0.881, 0.881, 0.881, 0.881.
0.885, 0.885, 0.885, 0.885, 0.885.
0.881, 0.881, 0.881, 0.881, 0.881.
0.883, 0.885, 0.887, 0.887, 0.887.
0.881, 0.881, 0.881, 0.881, 0.881.
0.875, 0.875, 0.875, 0.875, 0.875.
0.875, 0.875, 0.875, 0.875, 0.875.
0.857, 0.853, 0.853, 0.853, 0.853.
0.833, 0.826, 0.823, 0.823, 0.823.
0.807, 0.801, 0.801, 0.801, 0.801.
0.852, 0.862, 0.865, 0.865, 0.865.
0.861, 0.865, 0.865, 0.865, 0.865.
0.817, 0.811, 0.811, 0.811, 0.811.
0.732, 0.711, 0.706, 0.711, 0.723.
0.632, 0.602, 0.594, 0.602, 0.622.
0.706, 0.722, 0.733, 0.744, 0.757.
0.763, 0.785, 0.796, 0.801, 0.801.
0.796, 0.809, 0.811, 0.811, 0.811.
0.817, 0.823, 0.823, 0.823, 0.823.
0.881, 0.893, 0.897, 0.897, 0.896.
0.846, 0.844, 0.844, 0.844, 0.844.
0.817, 0.811, 0.811, 0.811, 0.811.
0.843, 0.845, 0.845, 0.845, 0.845.
0.862, 0.865, 0.865, 0.865, 0.865.
0.879, 0.883, 0.885, 0.885, 0.885.
0.881, 0.881, 0.881, 0.881, 0.881.
0.892, 0.892, 0.892, 0.892, 0.891.
0.915, 0.918, 0.918, 0.915, 0.909.
0.913, 0.912, 0.912, 0.912, 0.911.
0.913, 0.911, 0.907, 0.902, 0.899.
0.907, 0.902, 0.899, 0.899, 0.899.
0.897, 0.894, 0.894, 0.894, 0.891.
0.867, 0.857, 0.852, 0.852, 0.852.
0.876, 0.875, 0.875, 0.875, 0.875.
0.896, 0.902, 0.906, 0.907, 0.907.
0.883, 0.882, 0.882, 0.882, 0.882.
0.832, 0.808, 0.799, 0.803, 0.811.
0.816, 0.801, 0.799, 0.803, 0.811.
0.899, 0.912, 0.916, 0.916, 0.915.
0.902, 0.907, 0.907, 0.907, 0.906.
0.879, 0.879, 0.879, 0.879, 0.879.
0.899, 0.902, 0.904, 0.904, 0.904.
0.927, 0.929, 0.929, 0.929, 0.929.
0.913, 0.911, 0.911, 0.911, 0.911.
0.918, 0.918, 0.918, 0.918, 0.918.
0.928, 0.929, 0.929, 0.929, 0.929.
0.919, 0.918, 0.918, 0.918, 0.918.
0.915, 0.915, 0.916, 0.916, 0.916.
0.909, 0.909, 0.911, 0.912, 0.912.
0.899, 0.899, 0.901, 0.903, 0.903.
0.912, 0.915, 0.916, 0.916, 0.916.
0.911, 0.912, 0.912, 0.912, 0.912.
0.897, 0.894, 0.894, 0.894, 0.894.
0.875, 0.867, 0.863, 0.863, 0.863.
0.875, 0.875, 0.875, 0.875, 0.875.
0.906, 0.913, 0.915, 0.915, 0.915.
0.901, 0.903, 0.904, 0.904, 0.904.
0.889, 0.886, 0.885, 0.885, 0.885.
0.875, 0.869, 0.865, 0.863, 0.863.
0.892, 0.892, 0.892, 0.892, 0.892.
0.908, 0.912, 0.913, 0.913, 0.913.
0.885, 0.885, 0.885, 0.885, 0.885.
0.84, 0.825, 0.817, 0.816, 0.817.
0.817, 0.811, 0.811, 0.811, 0.811.
0.817, 0.817, 0.817, 0.817, 0.817.
0.871, 0.886, 0.894, 0.897, 0.897.
0.874, 0.882, 0.885, 0.885, 0.885.
0.854, 0.854, 0.854, 0.854, 0.854.
0.838, 0.837, 0.837, 0.837, 0.837.
0.817, 0.811, 0.811, 0.811, 0.811.
0.829, 0.831, 0.832, 0.832, 0.832.
0.84, 0.845, 0.846, 0.846, 0.846.
0.863, 0.869, 0.873, 0.875, 0.875.
0.863, 0.863, 0.863, 0.863, 0.863.
0.863, 0.863, 0.863, 0.863, 0.863.
0.864, 0.863, 0.863, 0.863, 0.863.
0.881, 0.885, 0.887, 0.887, 0.887.
0.915, 0.922, 0.924, 0.924, 0.922.
0.913, 0.912, 0.912, 0.912, 0.912.
0.904, 0.902, 0.902, 0.902, 0.9.
0.909, 0.909, 0.909, 0.909, 0.907.
0.907, 0.907, 0.907, 0.907, 0.906.
0.885, 0.875, 0.869, 0.863, 0.857.
0.868, 0.857, 0.848, 0.844, 0.844.
0.87, 0.868, 0.869, 0.869, 0.869.
0.882, 0.883, 0.885, 0.885, 0.885.
0.899, 0.903, 0.906, 0.907, 0.907.
0.907, 0.907, 0.907, 0.907, 0.906.
0.903, 0.902, 0.9, 0.896, 0.894.
0.899, 0.899, 0.899, 0.899, 0.899.
0.899, 0.899, 0.899, 0.899, 0.899.
0.899, 0.899, 0.899, 0.899, 0.899.
0.903, 0.903, 0.904, 0.905, 0.906.
0.924, 0.927, 0.928, 0.928, 0.928.
0.927, 0.928, 0.928, 0.928, 0.928.
0.926, 0.926, 0.926, 0.927, 0.928.
0.928, 0.928, 0.928, 0.928, 0.928.
0.923, 0.923, 0.923, 0.923, 0.923.
0.919, 0.918, 0.918, 0.918, 0.918.
0.909, 0.909, 0.911, 0.912, 0.912.
0.911, 0.911, 0.911, 0.911, 0.911.
0.894, 0.891, 0.891, 0.892, 0.892.
0.875, 0.869, 0.869, 0.869, 0.869.
0.875, 0.875, 0.875, 0.875, 0.875.
0.871, 0.871, 0.871, 0.871, 0.871.
0.875, 0.875, 0.875, 0.875, 0.875.
0.85, 0.851, 0.852, 0.853, 0.854.
0.845, 0.845, 0.845, 0.845, 0.845.
0.817, 0.808, 0.801, 0.799, 0.799.
0.786, 0.778, 0.778, 0.778, 0.778.
0.742, 0.732, 0.729, 0.729, 0.729.
0.83, 0.852, 0.863, 0.869, 0.871.
0.806, 0.807, 0.811, 0.817, 0.823.
0.723, 0.702, 0.694, 0.699, 0.711.
0.742, 0.742, 0.746, 0.757, 0.769.
0.728, 0.732, 0.742, 0.755, 0.768.
0.722, 0.729, 0.742, 0.757, 0.768.
0.811, 0.845, 0.862, 0.869, 0.869.
0.791, 0.802, 0.804, 0.804, 0.805.
0.778, 0.778, 0.778, 0.778, 0.778.
0.839, 0.857, 0.862, 0.863, 0.863.
0.817, 0.816, 0.816, 0.816, 0.817.
0.816, 0.816, 0.816, 0.816, 0.817.
0.838, 0.845, 0.845, 0.845, 0.845.
0.859, 0.863, 0.863, 0.863, 0.862.
0.853, 0.853, 0.853, 0.853, 0.853.
0.858, 0.859, 0.859, 0.859, 0.857.
0.859, 0.859, 0.859, 0.859, 0.857.
0.881, 0.885, 0.885, 0.885, 0.885.
0.885, 0.885, 0.885, 0.885, 0.885.
0.896, 0.897, 0.897, 0.897, 0.897.
0.891, 0.891, 0.891, 0.891, 0.891.
0.892, 0.892, 0.892, 0.892, 0.891.
0.879, 0.875, 0.875, 0.875, 0.875.
0.869, 0.863, 0.857, 0.853, 0.853.
0.875, 0.875, 0.875, 0.875, 0.875.
0.832, 0.821, 0.816, 0.816, 0.817.
0.85, 0.852, 0.853, 0.853, 0.853.
0.802, 0.793, 0.796, 0.803, 0.811.
0.787, 0.791, 0.798, 0.803, 0.807.
0.85, 0.862, 0.869, 0.871, 0.871.
0.882, 0.893, 0.897, 0.897, 0.896.
0.898, 0.902, 0.904, 0.905, 0.905.
0.885, 0.885, 0.885, 0.885, 0.885.
0.843, 0.835, 0.832, 0.832, 0.832.
0.825, 0.821, 0.821, 0.823, 0.826.
0.823, 0.823, 0.823, 0.823, 0.826.
0.791, 0.791, 0.796, 0.803, 0.811.
0.831, 0.845, 0.855, 0.862, 0.864.
0.836, 0.842, 0.845, 0.846, 0.846.
0.834, 0.839, 0.842, 0.843, 0.843.
0.843, 0.845, 0.845, 0.845, 0.845.
0.847, 0.847, 0.846, 0.846, 0.846.
0.846, 0.846, 0.846, 0.846, 0.846.
0.871, 0.875, 0.875, 0.875, 0.875.
0.912, 0.916, 0.915, 0.912, 0.906.
0.928, 0.928, 0.927, 0.924, 0.919.
0.93, 0.928, 0.924, 0.919, 0.914.
0.919, 0.912, 0.909, 0.909, 0.909.
0.915, 0.909, 0.906, 0.905, 0.906.
0.916, 0.916, 0.916, 0.916, 0.916.
0.909, 0.907, 0.907, 0.907, 0.907.
0.901, 0.899, 0.899, 0.899, 0.899.
0.893, 0.892, 0.894, 0.896, 0.897.
0.885, 0.885, 0.885, 0.885, 0.885.
0.869, 0.863, 0.859, 0.857, 0.857.
0.864, 0.863, 0.863, 0.863, 0.863.
0.85, 0.847, 0.846, 0.846, 0.846.
0.834, 0.832, 0.832, 0.832, 0.832.
0.821, 0.817, 0.816, 0.816, 0.817.
0.82, 0.819, 0.819, 0.819, 0.819.
0.85, 0.863, 0.871, 0.875, 0.875.
0.845, 0.845, 0.845, 0.845, 0.845.
0.85, 0.852, 0.853, 0.853, 0.853.
0.859, 0.859, 0.859, 0.859, 0.859.
0.857, 0.857, 0.857, 0.857, 0.857.
0.84, 0.837, 0.837, 0.837, 0.837.
0.799, 0.792, 0.792, 0.796, 0.801.
0.767, 0.763, 0.763, 0.763, 0.763.
0.732, 0.729, 0.729, 0.729, 0.729.
0.699, 0.695, 0.699, 0.706, 0.714.
0.674, 0.667, 0.667, 0.674, 0.687.
0.646, 0.646, 0.657, 0.676, 0.699.
0.602, 0.599, 0.602, 0.605, 0.605.
0.538, 0.533, 0.538, 0.546, 0.552.
0.457, 0.446, 0.446, 0.454, 0.471.
0.443, 0.443, 0.446, 0.452, 0.463.
0.432, 0.435, 0.443, 0.454, 0.471.
0.461, 0.483, 0.503, 0.514, 0.519.
0.468, 0.478, 0.491, 0.51, 0.526.
0.408, 0.399, 0.402, 0.408, 0.414.
0.454, 0.471, 0.492, 0.52, 0.552.
0.561, 0.617, 0.657, 0.687, 0.703.
0.583, 0.617, 0.641, 0.657, 0.667.
0.581, 0.591, 0.603, 0.605, 0.605.
0.603, 0.617, 0.627, 0.633, 0.638.
0.642, 0.667, 0.687, 0.699, 0.701.
0.701, 0.722, 0.731, 0.733, 0.732.
0.742, 0.757, 0.763, 0.763, 0.757.
0.768, 0.775, 0.775, 0.772, 0.763.
0.781, 0.786, 0.787, 0.787, 0.787.
0.757, 0.744, 0.732, 0.722, 0.713.
0.748, 0.733, 0.719, 0.704, 0.693.
0.808, 0.818, 0.817, 0.808, 0.799.
0.781, 0.767, 0.749, 0.729, 0.708.
0.776, 0.768, 0.757, 0.744, 0.732.
0.776, 0.771, 0.763, 0.757, 0.757.
0.803, 0.805, 0.805, 0.805, 0.805.
0.861, 0.872, 0.872, 0.867, 0.857.
0.852, 0.852, 0.852, 0.853, 0.853.
0.845, 0.838, 0.832, 0.824, 0.818.
0.842, 0.838, 0.832, 0.824, 0.818.
0.85, 0.852, 0.852, 0.852, 0.853.
0.847, 0.844, 0.842, 0.842, 0.842.
0.788, 0.768, 0.757, 0.757, 0.763.
0.781, 0.772, 0.768, 0.767, 0.768.
0.822, 0.832, 0.838, 0.842, 0.846.
0.828, 0.831, 0.832, 0.832, 0.832.
0.826, 0.826, 0.826, 0.826, 0.826.
0.804, 0.799, 0.801, 0.804, 0.805.
0.793, 0.795, 0.801, 0.805, 0.805.
0.817, 0.823, 0.826, 0.826, 0.826.
0.827, 0.831, 0.832, 0.832, 0.832.
0.763, 0.743, 0.732, 0.729, 0.729.
0.711, 0.699, 0.702, 0.711, 0.723.
0.693, 0.692, 0.699, 0.711, 0.726.
0.697, 0.701, 0.706, 0.713, 0.723.
0.657, 0.657, 0.667, 0.679, 0.699.
0.642, 0.646, 0.657, 0.675, 0.699.
0.674, 0.699, 0.719, 0.733, 0.744.
0.817, 0.847, 0.863, 0.869, 0.869.
0.761, 0.763, 0.763, 0.763, 0.763.
0.734, 0.729, 0.729, 0.729, 0.729.
0.729, 0.729, 0.729, 0.729, 0.729.
0.667, 0.647, 0.638, 0.633, 0.633.
0.667, 0.667, 0.667, 0.667, 0.673.
0.638, 0.632, 0.632, 0.633, 0.638.
0.614, 0.602, 0.602, 0.609, 0.617.
0.696, 0.723, 0.742, 0.757, 0.767.
0.775, 0.803, 0.817, 0.824, 0.824.
0.803, 0.818, 0.824, 0.824, 0.821.
0.803, 0.804, 0.804, 0.804, 0.8.
0.817, 0.818, 0.816, 0.811, 0.804.
0.818, 0.816, 0.811, 0.804, 0.799.
0.818, 0.811, 0.804, 0.799, 0.798.
0.834, 0.832, 0.824, 0.813, 0.801.
0.835, 0.832, 0.828, 0.824, 0.821.
0.817, 0.807, 0.803, 0.803, 0.805.
0.823, 0.823, 0.823, 0.824, 0.826.
0.838, 0.842, 0.842, 0.842, 0.842.
0.832, 0.832, 0.832, 0.832, 0.832.
0.842, 0.843, 0.843, 0.842, 0.838.
0.835, 0.834, 0.832, 0.827, 0.821.
0.824, 0.818, 0.811, 0.804, 0.799.
0.787, 0.776, 0.768, 0.761, 0.757.
0.763, 0.753, 0.746, 0.742, 0.742.
0.791, 0.796, 0.798, 0.798, 0.798.
0.797, 0.798, 0.798, 0.798, 0.798.
0.797, 0.798, 0.798, 0.798, 0.798.
0.781, 0.781, 0.787, 0.798, 0.809.
0.743, 0.732, 0.729, 0.729, 0.729.
0.717, 0.713, 0.713, 0.713, 0.714.
0.675, 0.667, 0.667, 0.674, 0.687.
0.693, 0.701, 0.706, 0.713, 0.723.
0.775, 0.799, 0.811, 0.816, 0.817.
0.81, 0.831, 0.842, 0.846, 0.846.
0.803, 0.804, 0.804, 0.804, 0.805.
0.802, 0.803, 0.803, 0.804, 0.805.
0.801, 0.799, 0.798, 0.799, 0.8.
0.817, 0.821, 0.823, 0.823, 0.823.
0.827, 0.831, 0.832, 0.832, 0.832.
0.842, 0.846, 0.846, 0.846, 0.846.
0.857, 0.859, 0.859, 0.859, 0.859.
0.852, 0.853, 0.853, 0.853, 0.853.
0.838, 0.832, 0.826, 0.821, 0.818.
0.824, 0.816, 0.811, 0.811, 0.811.
0.797, 0.791, 0.787, 0.787, 0.787.
0.817, 0.817, 0.817, 0.817, 0.817.
0.861, 0.872, 0.875, 0.875, 0.871.
0.852, 0.853, 0.853, 0.853, 0.853.
0.85, 0.852, 0.852, 0.852, 0.852.
0.869, 0.871, 0.871, 0.871, 0.871.
0.875, 0.875, 0.875, 0.875, 0.875.
0.881, 0.881, 0.881, 0.881, 0.881.
0.881, 0.881, 0.881, 0.881, 0.881.
0.881, 0.882, 0.885, 0.887, 0.887.
0.885, 0.885, 0.885, 0.885, 0.885.
0.887, 0.887, 0.887, 0.887, 0.887.
0.891, 0.891, 0.891, 0.891, 0.891.
0.885, 0.885, 0.885, 0.885, 0.885.
0.909, 0.912, 0.912, 0.912, 0.912.
0.907, 0.907, 0.907, 0.907, 0.906.
0.907, 0.907, 0.907, 0.907, 0.906.
0.913, 0.913, 0.912, 0.912, 0.911.
0.913, 0.912, 0.912, 0.912, 0.911.
0.923, 0.924, 0.922, 0.919, 0.915.
0.923, 0.921, 0.919, 0.918, 0.918.
0.92, 0.919, 0.919, 0.919, 0.919.
0.921, 0.919, 0.918, 0.918, 0.918.
0.918, 0.918, 0.918, 0.918, 0.918.
0.919, 0.919, 0.919, 0.919, 0.919.
0.923, 0.923, 0.923, 0.923, 0.923.
0.923, 0.923, 0.923, 0.923, 0.923.
0.919, 0.919, 0.919, 0.919, 0.919.
0.928, 0.928, 0.928, 0.928, 0.928.
0.926, 0.926, 0.926, 0.926, 0.926.
0.934, 0.934, 0.934, 0.934, 0.934.
0.926, 0.924, 0.923, 0.923, 0.923.
0.921, 0.921, 0.921, 0.921, 0.921.
0.909, 0.902, 0.899, 0.899, 0.9.
0.901, 0.899, 0.899, 0.899, 0.9.
0.899, 0.899, 0.899, 0.899, 0.9.
0.892, 0.892, 0.894, 0.897, 0.9.
0.901, 0.906, 0.907, 0.907, 0.906.
0.892, 0.892, 0.894, 0.897, 0.899.
0.907, 0.913, 0.915, 0.916, 0.916.
0.897, 0.897, 0.897, 0.897, 0.897.
0.901, 0.904, 0.905, 0.905, 0.905.
0.86, 0.848, 0.844, 0.844, 0.845.
0.785, 0.762, 0.754, 0.754, 0.757.
0.85, 0.854, 0.854, 0.854, 0.854.
0.921, 0.927, 0.928, 0.928, 0.928.
0.931, 0.931, 0.931, 0.931, 0.931.
0.942, 0.942, 0.942, 0.942, 0.942.
0.944, 0.944, 0.944, 0.944, 0.944.
0.951, 0.951, 0.951, 0.951, 0.951.
0.952, 0.952, 0.952, 0.952, 0.952.
0.953, 0.953, 0.953, 0.953, 0.952.
0.952, 0.952, 0.952, 0.952, 0.952.
0.951, 0.951, 0.951, 0.951, 0.951.
0.944, 0.941, 0.938, 0.934, 0.929.
0.929, 0.922, 0.918, 0.916, 0.916.
0.916, 0.907, 0.903, 0.903, 0.904.
0.921, 0.921, 0.921, 0.921, 0.921.
0.916, 0.916, 0.916, 0.916, 0.916.
0.898, 0.894, 0.892, 0.892, 0.892.
0.894, 0.892, 0.892, 0.892, 0.892.
0.843, 0.832, 0.826, 0.823, 0.823.
0.904, 0.922, 0.933, 0.937, 0.937.
0.939, 0.945, 0.946, 0.946, 0.946.
0.949, 0.949, 0.948, 0.948, 0.948.
0.951, 0.951, 0.951, 0.951, 0.951.
0.956, 0.956, 0.956, 0.956, 0.956.
0.956, 0.956, 0.956, 0.956, 0.956.
0.952, 0.952, 0.952, 0.952, 0.952.
0.955, 0.955, 0.955, 0.955, 0.955.
0.956, 0.956, 0.956, 0.956, 0.956.
0.958, 0.958, 0.958, 0.958, 0.958.
0.955, 0.955, 0.955, 0.955, 0.955.
0.947, 0.946, 0.946, 0.946, 0.946.
0.949, 0.949, 0.949, 0.949, 0.949.
0.952, 0.952, 0.952, 0.952, 0.951.
0.952, 0.952, 0.952, 0.952, 0.952.
0.946, 0.944, 0.942, 0.941, 0.941.
0.949, 0.949, 0.949, 0.949, 0.949.
0.938, 0.932, 0.926, 0.921, 0.919.
0.931, 0.926, 0.921, 0.918, 0.916.
0.939, 0.939, 0.939, 0.939, 0.939.
0.946, 0.948, 0.949, 0.949, 0.949.
0.951, 0.952, 0.952, 0.952, 0.952.
0.939, 0.937, 0.937, 0.937, 0.937.
0.886, 0.879, 0.879, 0.879, 0.879.
0.84, 0.838, 0.842, 0.852, 0.863.
0.742, 0.723, 0.723, 0.732, 0.745.
0.653, 0.646, 0.657, 0.678, 0.703.
0.593, 0.597, 0.622, 0.657, 0.694.
0.832, 0.904, 0.926, 0.933, 0.936.
0.862, 0.883, 0.896, 0.901, 0.905.
0.799, 0.787, 0.787, 0.795, 0.803.
0.871, 0.889, 0.899, 0.904, 0.905.
0.885, 0.896, 0.901, 0.904, 0.905.
0.864, 0.862, 0.862, 0.862, 0.862.
0.843, 0.838, 0.838, 0.838, 0.838.
0.845, 0.845, 0.845, 0.845, 0.845.
0.859, 0.859, 0.859, 0.859, 0.859.
0.857, 0.859, 0.859, 0.859, 0.859.
0.85, 0.852, 0.852, 0.852, 0.852.
0.817, 0.802, 0.799, 0.803, 0.809.
0.767, 0.763, 0.768, 0.772, 0.772.
0.843, 0.867, 0.879, 0.882, 0.879.
0.85, 0.862, 0.869, 0.869, 0.862.
0.825, 0.823, 0.821, 0.816, 0.806.
0.859, 0.862, 0.857, 0.847, 0.832.
0.879, 0.882, 0.879, 0.871, 0.857.
0.865, 0.857, 0.846, 0.835, 0.826.
0.852, 0.844, 0.838, 0.834, 0.832.
0.817, 0.799, 0.792, 0.792, 0.798.
0.783, 0.772, 0.772, 0.778, 0.784.
0.776, 0.783, 0.795, 0.803, 0.811.
0.771, 0.778, 0.787, 0.796, 0.801.
0.768, 0.771, 0.778, 0.787, 0.796.
0.784, 0.795, 0.803, 0.805, 0.805.
0.781, 0.789, 0.798, 0.803, 0.805.
0.732, 0.711, 0.699, 0.699, 0.699.
0.756, 0.763, 0.768, 0.768, 0.768.
0.81, 0.825, 0.832, 0.832, 0.831.
0.845, 0.859, 0.863, 0.864, 0.864.
0.842, 0.842, 0.842, 0.842, 0.842.
0.817, 0.811, 0.811, 0.811, 0.811.
0.801, 0.796, 0.798, 0.803, 0.811.
0.761, 0.747, 0.742, 0.742, 0.745.
0.713, 0.699, 0.702, 0.711, 0.723.
0.713, 0.711, 0.713, 0.719, 0.729.
0.745, 0.762, 0.778, 0.791, 0.801.
0.742, 0.753, 0.763, 0.768, 0.768.
0.653, 0.647, 0.652, 0.657, 0.657.
0.685, 0.702, 0.715, 0.722, 0.723.
0.667, 0.667, 0.667, 0.667, 0.667.
0.659, 0.657, 0.657, 0.657, 0.657.
0.722, 0.741, 0.753, 0.757, 0.757.
0.729, 0.732, 0.731, 0.729, 0.729.
0.681, 0.667, 0.657, 0.657, 0.667.
0.722, 0.727, 0.729, 0.729, 0.729.
0.722, 0.727, 0.729, 0.729, 0.729.
0.717, 0.717, 0.717, 0.719, 0.726.
0.729, 0.731, 0.731, 0.731, 0.732.
0.843, 0.867, 0.879, 0.885, 0.885.
0.885, 0.897, 0.901, 0.904, 0.905.
0.89, 0.895, 0.897, 0.897, 0.894.
0.883, 0.882, 0.875, 0.865, 0.854.
0.879, 0.875, 0.869, 0.863, 0.857.
0.863, 0.853, 0.844, 0.834, 0.823.
0.834, 0.816, 0.804, 0.799, 0.799.
0.85, 0.852, 0.852, 0.852, 0.852.
0.842, 0.842, 0.842, 0.842, 0.842.
0.785, 0.766, 0.757, 0.753, 0.753.
0.742, 0.727, 0.722, 0.723, 0.729.
0.681, 0.666, 0.666, 0.674, 0.689.
0.602, 0.583, 0.584, 0.596, 0.612.
0.481, 0.457, 0.457, 0.476, 0.503.
0.471, 0.481, 0.503, 0.525, 0.546.
0.505, 0.542, 0.583, 0.617, 0.638.
0.446, 0.443, 0.446, 0.457, 0.476.
0.483, 0.505, 0.525, 0.543, 0.564.
0.423, 0.409, 0.406, 0.408, 0.414.
0.372, 0.353, 0.342, 0.342, 0.353.
0.322, 0.302, 0.299, 0.302, 0.302.
0.292, 0.285, 0.292, 0.314, 0.342.
0.283, 0.292, 0.314, 0.342, 0.371.
0.276, 0.292, 0.314, 0.342, 0.371.
0.302, 0.332, 0.362, 0.386, 0.403.
0.396, 0.457, 0.492, 0.505, 0.503.
0.342, 0.342, 0.342, 0.342, 0.342.
0.392, 0.409, 0.413, 0.408, 0.403.
0.322, 0.302, 0.292, 0.292, 0.292.
0.265, 0.247, 0.238, 0.238, 0.238.
0.278, 0.278, 0.278, 0.278, 0.278.
0.278, 0.278, 0.278, 0.278, 0.278.
0.261, 0.257, 0.257, 0.257, 0.258.
0.268, 0.268, 0.268, 0.269, 0.271.
0.289, 0.298, 0.302, 0.302, 0.3.
0.289, 0.289, 0.289, 0.289, 0.289.
0.278, 0.274, 0.274, 0.276, 0.278.
0.292, 0.293, 0.292, 0.292, 0.292.
0.332, 0.347, 0.353, 0.353, 0.353.
0.336, 0.332, 0.321, 0.309, 0.3.
0.386, 0.392, 0.392, 0.392, 0.393.
0.457, 0.471, 0.474, 0.474, 0.474.
0.574, 0.593, 0.598, 0.597, 0.597.
0.638, 0.653, 0.657, 0.657, 0.657.
0.647, 0.647, 0.646, 0.646, 0.646.
0.667, 0.667, 0.667, 0.667, 0.667.
0.693, 0.699, 0.701, 0.699, 0.699.
0.667, 0.657, 0.647, 0.638, 0.625.
0.625, 0.591, 0.574, 0.574, 0.574.
0.614, 0.599, 0.598, 0.599, 0.599.
0.729, 0.749, 0.757, 0.757, 0.753.
0.801, 0.819, 0.824, 0.824, 0.821.
0.781, 0.781, 0.776, 0.767, 0.757.
0.787, 0.787, 0.787, 0.787, 0.787.
0.753, 0.733, 0.715, 0.699, 0.687.
0.742, 0.732, 0.722, 0.711, 0.699.
0.722, 0.711, 0.699, 0.699, 0.701.
0.759, 0.763, 0.763, 0.763, 0.763.
0.763, 0.763, 0.763, 0.763, 0.763.
0.767, 0.767, 0.767, 0.767, 0.767.
0.723, 0.708, 0.699, 0.699, 0.708.
0.667, 0.657, 0.657, 0.657, 0.657.
0.594, 0.574, 0.574, 0.587, 0.603.
0.481, 0.457, 0.457, 0.476, 0.503.
0.423, 0.408, 0.405, 0.405, 0.403.
0.432, 0.443, 0.464, 0.492, 0.519.
0.538, 0.597, 0.632, 0.647, 0.657.
0.487, 0.487, 0.487, 0.492, 0.503.
0.391, 0.381, 0.384, 0.391, 0.403.
0.435, 0.443, 0.446, 0.446, 0.452.
0.525, 0.563, 0.587, 0.603, 0.615.
0.474, 0.471, 0.474, 0.487, 0.503.
0.471, 0.471, 0.478, 0.491, 0.503.
0.526, 0.547, 0.559, 0.563, 0.565.
0.696, 0.743, 0.757, 0.757, 0.757.
0.664, 0.667, 0.667, 0.667, 0.667.
0.673, 0.674, 0.674, 0.674, 0.674.
0.657, 0.657, 0.657, 0.657, 0.657.
0.667, 0.667, 0.667, 0.667, 0.667.
0.667, 0.667, 0.667, 0.667, 0.667.
0.646, 0.638, 0.638, 0.638, 0.638.
0.72, 0.742, 0.757, 0.763, 0.757.
0.726, 0.729, 0.729, 0.729, 0.729.
0.683, 0.667, 0.657, 0.647, 0.638.
0.647, 0.622, 0.602, 0.587, 0.587.
0.617, 0.591, 0.578, 0.574, 0.574.
0.598, 0.587, 0.587, 0.591, 0.596.
0.669, 0.688, 0.701, 0.705, 0.705.
0.602, 0.602, 0.602, 0.598, 0.597.
0.491, 0.454, 0.435, 0.435, 0.457.
0.534, 0.538, 0.543, 0.546, 0.546.
0.525, 0.526, 0.533, 0.543, 0.552.
0.603, 0.633, 0.657, 0.679, 0.699.
0.706, 0.741, 0.757, 0.763, 0.763.
0.719, 0.733, 0.733, 0.732, 0.732.
0.753, 0.763, 0.767, 0.767, 0.763.
0.808, 0.818, 0.817, 0.808, 0.799.
0.818, 0.817, 0.811, 0.804, 0.799.
0.836, 0.838, 0.838, 0.838, 0.838.
0.858, 0.859, 0.859, 0.859, 0.859.
0.889, 0.895, 0.898, 0.899, 0.899.
0.899, 0.901, 0.902, 0.904, 0.905.
0.896, 0.896, 0.897, 0.897, 0.894.
0.898, 0.899, 0.899, 0.899, 0.899.
0.863, 0.843, 0.825, 0.811, 0.799.
0.829, 0.811, 0.799, 0.796, 0.796.
0.702, 0.667, 0.657, 0.657, 0.657.
0.653, 0.617, 0.602, 0.602, 0.613.
0.719, 0.742, 0.757, 0.763, 0.763.
0.759, 0.778, 0.786, 0.791, 0.792.
0.758, 0.763, 0.763, 0.763, 0.763.
0.768, 0.768, 0.768, 0.768, 0.768.
0.796, 0.803, 0.804, 0.805, 0.805.
0.803, 0.804, 0.804, 0.805, 0.805.
0.713, 0.674, 0.657, 0.652, 0.657.
0.802, 0.817, 0.824, 0.826, 0.826.
0.852, 0.869, 0.879, 0.884, 0.885.
0.91, 0.922, 0.927, 0.928, 0.928.
0.933, 0.938, 0.939, 0.939, 0.939.
0.924, 0.924, 0.924, 0.924, 0.924.
0.919, 0.918, 0.918, 0.918, 0.918.
0.936, 0.939, 0.939, 0.939, 0.939.
0.937, 0.938, 0.938, 0.937, 0.932.
0.938, 0.936, 0.932, 0.928, 0.921.
0.941, 0.941, 0.941, 0.938, 0.932.
0.921, 0.915, 0.909, 0.904, 0.899.
0.919, 0.915, 0.909, 0.902, 0.899.
0.927, 0.928, 0.928, 0.928, 0.928.
0.886, 0.871, 0.862, 0.857, 0.857.
0.854, 0.838, 0.832, 0.832, 0.838.
0.811, 0.792, 0.783, 0.784, 0.789.
0.84, 0.848, 0.853, 0.857, 0.859.
0.84, 0.848, 0.854, 0.857, 0.857.
0.909, 0.922, 0.927, 0.929, 0.929.
0.881, 0.883, 0.885, 0.885, 0.885.
0.881, 0.881, 0.881, 0.882, 0.885.
0.885, 0.885, 0.885, 0.885, 0.885.
0.892, 0.894, 0.897, 0.901, 0.906.
0.885, 0.885, 0.885, 0.885, 0.885.
0.885, 0.885, 0.885, 0.885, 0.885.
0.889, 0.891, 0.891, 0.891, 0.891.
0.91, 0.917, 0.921, 0.923, 0.923.
0.907, 0.907, 0.907, 0.907, 0.907.
0.899, 0.899, 0.901, 0.904, 0.904.
0.903, 0.906, 0.907, 0.907, 0.906.
0.913, 0.915, 0.916, 0.916, 0.915.
0.924, 0.927, 0.928, 0.927, 0.924.
0.934, 0.934, 0.932, 0.928, 0.921.
0.899, 0.891, 0.885, 0.879, 0.871.
0.925, 0.927, 0.927, 0.926, 0.924.
0.929, 0.929, 0.929, 0.929, 0.929.
0.929, 0.929, 0.929, 0.929, 0.929.
0.924, 0.921, 0.919, 0.919, 0.919.
0.923, 0.923, 0.923, 0.923, 0.923.
0.931, 0.931, 0.931, 0.931, 0.931.
0.931, 0.931, 0.931, 0.931, 0.931.
0.923, 0.921, 0.921, 0.921, 0.921.
0.923, 0.923, 0.923, 0.923, 0.923.
0.919, 0.919, 0.919, 0.919, 0.919.
0.928, 0.931, 0.931, 0.931, 0.931.
0.931, 0.931, 0.931, 0.931, 0.931.
0.928, 0.928, 0.928, 0.928, 0.928.
0.938, 0.939, 0.939, 0.939, 0.939.
0.949, 0.949, 0.949, 0.949, 0.949.
0.936, 0.932, 0.931, 0.931, 0.931.
0.933, 0.931, 0.931, 0.931, 0.931.
0.933, 0.932, 0.931, 0.931, 0.931.
0.932, 0.931, 0.931, 0.931, 0.931.
0.921, 0.919, 0.919, 0.919, 0.919.
0.921, 0.921, 0.921, 0.921, 0.921.
0.899, 0.894, 0.892, 0.892, 0.892.
0.899, 0.899, 0.901, 0.905, 0.909.
0.885, 0.882, 0.882, 0.882, 0.882.
0.863, 0.859, 0.859, 0.859, 0.859.
0.863, 0.863, 0.863, 0.863, 0.863.
0.859, 0.859, 0.859, 0.859, 0.859.
0.85, 0.854, 0.854, 0.854, 0.854.
0.821, 0.813, 0.811, 0.811, 0.811.
0.804, 0.799, 0.798, 0.799, 0.801.
0.82, 0.821, 0.823, 0.826, 0.831.
0.836, 0.842, 0.845, 0.845, 0.845.
0.834, 0.838, 0.842, 0.845, 0.847.
0.826, 0.826, 0.826, 0.826, 0.826.
0.845, 0.849, 0.851, 0.853, 0.853.
0.924, 0.935, 0.938, 0.938, 0.938.
0.915, 0.916, 0.916, 0.916, 0.916.
0.912, 0.912, 0.912, 0.912, 0.912.
0.916, 0.916, 0.916, 0.916, 0.916.
0.912, 0.912, 0.912, 0.912, 0.912.
0.907, 0.903, 0.899, 0.899, 0.899.
0.896, 0.894, 0.894, 0.894, 0.894.
0.843, 0.825, 0.815, 0.811, 0.811.
0.843, 0.842, 0.842, 0.842, 0.842.
0.83, 0.826, 0.826, 0.826, 0.826.
0.827, 0.826, 0.826, 0.826, 0.826.
0.871, 0.882, 0.885, 0.885, 0.885.
0.889, 0.896, 0.901, 0.904, 0.905.
0.907, 0.907, 0.906, 0.904, 0.9.
0.939, 0.941, 0.941, 0.939, 0.936.
0.942, 0.941, 0.938, 0.934, 0.929.
0.936, 0.932, 0.928, 0.924, 0.921.
0.94, 0.939, 0.937, 0.934, 0.932.
0.935, 0.932, 0.931, 0.931, 0.931.
0.924, 0.919, 0.916, 0.916, 0.917.
0.916, 0.913, 0.913, 0.913, 0.913.
0.921, 0.923, 0.926, 0.929, 0.931.
0.926, 0.929, 0.931, 0.932, 0.932.
0.926, 0.927, 0.928, 0.928, 0.928.
0.942, 0.944, 0.944, 0.942, 0.938.
0.949, 0.949, 0.949, 0.949, 0.948.
0.944, 0.942, 0.938, 0.934, 0.929.
0.933, 0.927, 0.921, 0.915, 0.909.
0.921, 0.915, 0.909, 0.903, 0.899.
0.921, 0.919, 0.918, 0.918, 0.918.
0.923, 0.921, 0.921, 0.921, 0.921.
0.921, 0.919, 0.919, 0.921, 0.923.
0.921, 0.921, 0.921, 0.921, 0.921.
0.914, 0.914, 0.916, 0.918, 0.919.
0.913, 0.914, 0.916, 0.918, 0.918.
0.911, 0.913, 0.915, 0.916, 0.916.
0.913, 0.915, 0.916, 0.916, 0.916.
0.939, 0.945, 0.946, 0.946, 0.944.
0.945, 0.946, 0.946, 0.944, 0.941.
0.942, 0.942, 0.942, 0.942, 0.941.
0.933, 0.928, 0.922, 0.919, 0.919.
0.921, 0.918, 0.916, 0.916, 0.916.
0.915, 0.913, 0.913, 0.914, 0.916.
0.918, 0.918, 0.918, 0.918, 0.918.
0.881, 0.874, 0.875, 0.879, 0.882.
0.85, 0.849, 0.854, 0.862, 0.871.
0.879, 0.893, 0.903, 0.907, 0.907.
0.883, 0.894, 0.901, 0.904, 0.905.
0.872, 0.875, 0.875, 0.875, 0.875.
0.834, 0.825, 0.819, 0.816, 0.816.
0.845, 0.845, 0.845, 0.845, 0.845.
0.845, 0.845, 0.845, 0.845, 0.845.
0.829, 0.826, 0.826, 0.826, 0.826.
0.883, 0.895, 0.901, 0.904, 0.905.
0.901, 0.906, 0.907, 0.907, 0.907.
0.907, 0.907, 0.907, 0.907, 0.907.
0.906, 0.907, 0.907, 0.907, 0.907.
0.869, 0.859, 0.857, 0.859, 0.862.
0.863, 0.859, 0.859, 0.859, 0.859.
0.872, 0.878, 0.885, 0.892, 0.896.
0.862, 0.863, 0.863, 0.863, 0.863.
0.83, 0.821, 0.819, 0.819, 0.819.
0.811, 0.801, 0.799, 0.801, 0.802.
0.776, 0.768, 0.763, 0.763, 0.763.
0.713, 0.695, 0.692, 0.699, 0.708.
0.646, 0.633, 0.632, 0.633, 0.638.
0.762, 0.791, 0.802, 0.804, 0.805.
0.843, 0.857, 0.862, 0.863, 0.862.
0.834, 0.838, 0.838, 0.838, 0.838.
0.803, 0.799, 0.802, 0.804, 0.805.
0.706, 0.666, 0.644, 0.633, 0.633.
0.742, 0.742, 0.742, 0.742, 0.745.
0.791, 0.806, 0.811, 0.811, 0.811.
0.768, 0.768, 0.772, 0.784, 0.798.
0.749, 0.747, 0.754, 0.763, 0.768.
0.742, 0.742, 0.745, 0.745, 0.745.
0.695, 0.687, 0.695, 0.711, 0.726.
0.667, 0.667, 0.678, 0.694, 0.708.
0.619, 0.602, 0.599, 0.602, 0.607.
0.602, 0.602, 0.602, 0.602, 0.603.
0.583, 0.578, 0.578, 0.584, 0.596.
0.568, 0.568, 0.574, 0.584, 0.596.
0.543, 0.538, 0.538, 0.541, 0.546.
0.559, 0.565, 0.574, 0.584, 0.596.
0.559, 0.574, 0.591, 0.603, 0.607.
0.525, 0.523, 0.525, 0.533, 0.546.
0.494, 0.481, 0.481, 0.491, 0.503.
0.443, 0.432, 0.435, 0.448, 0.471.
0.396, 0.387, 0.391, 0.402, 0.403.
0.376, 0.378, 0.387, 0.402, 0.415.
0.361, 0.362, 0.371, 0.386, 0.403.
0.366, 0.382, 0.402, 0.421, 0.435.
0.342, 0.342, 0.352, 0.371, 0.394.
0.396, 0.423, 0.446, 0.463, 0.474.
0.422, 0.446, 0.462, 0.471, 0.474.
0.392, 0.392, 0.392, 0.392, 0.393.
0.353, 0.332, 0.319, 0.307, 0.299.
0.372, 0.372, 0.372, 0.371, 0.371.
0.382, 0.382, 0.382, 0.382, 0.384.
0.332, 0.312, 0.299, 0.298, 0.302.
0.321, 0.314, 0.313, 0.314, 0.319.
0.464, 0.523, 0.546, 0.547, 0.538.
0.408, 0.408, 0.406, 0.405, 0.403.
0.408, 0.406, 0.402, 0.402, 0.403.
0.454, 0.476, 0.492, 0.5, 0.499.
0.491, 0.51, 0.511, 0.505, 0.499.
0.491, 0.492, 0.492, 0.492, 0.492.
0.538, 0.546, 0.538, 0.524, 0.503.
0.574, 0.588, 0.596, 0.598, 0.596.
0.573, 0.574, 0.574, 0.574, 0.574.
0.591, 0.598, 0.603, 0.605, 0.605.
0.518, 0.491, 0.481, 0.481, 0.484.
0.438, 0.408, 0.397, 0.399, 0.403.
0.353, 0.327, 0.321, 0.327, 0.342.
0.332, 0.319, 0.319, 0.327, 0.342.
0.366, 0.384, 0.402, 0.413, 0.415.
0.398, 0.422, 0.443, 0.457, 0.462.
0.426, 0.446, 0.457, 0.461, 0.461.
0.491, 0.523, 0.541, 0.547, 0.541.
0.696, 0.732, 0.745, 0.745, 0.742.
0.706, 0.708, 0.691, 0.667, 0.647.
0.702, 0.695, 0.687, 0.687, 0.691.
0.722, 0.722, 0.722, 0.722, 0.719.
0.696, 0.687, 0.687, 0.692, 0.699.
0.702, 0.699, 0.699, 0.699, 0.699.
0.693, 0.691, 0.695, 0.702, 0.708.
0.554, 0.509, 0.491, 0.491, 0.503.
0.505, 0.471, 0.457, 0.457, 0.471.
0.517, 0.525, 0.546, 0.574, 0.598.
0.509, 0.525, 0.546, 0.566, 0.587.
0.523, 0.549, 0.574, 0.591, 0.596.
0.603, 0.641, 0.657, 0.657, 0.647.
0.593, 0.603, 0.602, 0.597, 0.587.
0.723, 0.744, 0.743, 0.733, 0.719.
0.818, 0.833, 0.833, 0.824, 0.811.
0.762, 0.747, 0.733, 0.722, 0.715.
0.777, 0.772, 0.763, 0.757, 0.757.
0.713, 0.674, 0.647, 0.633, 0.633.
0.634, 0.593, 0.574, 0.574, 0.587.
0.602, 0.591, 0.602, 0.622, 0.646.
0.627, 0.643, 0.667, 0.697, 0.719.
0.633, 0.657, 0.688, 0.719, 0.741.
0.635, 0.657, 0.683, 0.701, 0.708.
0.696, 0.723, 0.742, 0.757, 0.763.
0.794, 0.818, 0.825, 0.825, 0.821.
0.818, 0.825, 0.824, 0.818, 0.804.
0.807, 0.804, 0.799, 0.792, 0.783.
0.821, 0.817, 0.806, 0.799, 0.798.
0.823, 0.816, 0.805, 0.799, 0.799.
0.807, 0.799, 0.796, 0.798, 0.801.
0.802, 0.799, 0.799, 0.801, 0.806.
0.799, 0.799, 0.801, 0.805, 0.809.
0.822, 0.828, 0.832, 0.832, 0.832.
0.823, 0.828, 0.832, 0.832, 0.832.
0.791, 0.792, 0.798, 0.803, 0.805.
0.811, 0.817, 0.819, 0.819, 0.819.
0.753, 0.747, 0.746, 0.746, 0.746.
0.657, 0.633, 0.624, 0.622, 0.624.
0.622, 0.602, 0.599, 0.602, 0.605.
0.706, 0.723, 0.733, 0.744, 0.757.
0.742, 0.757, 0.763, 0.763, 0.763.
0.796, 0.809, 0.811, 0.811, 0.811.
0.85, 0.854, 0.854, 0.854, 0.854.
0.889, 0.897, 0.899, 0.899, 0.899.
0.843, 0.834, 0.832, 0.832, 0.832.
0.817, 0.804, 0.799, 0.803, 0.809.
0.776, 0.766, 0.763, 0.763, 0.768.
0.793, 0.799, 0.803, 0.805, 0.805.
0.85, 0.862, 0.869, 0.871, 0.869.
0.83, 0.834, 0.838, 0.838, 0.838.
0.838, 0.842, 0.843, 0.843, 0.843.
0.859, 0.863, 0.863, 0.863, 0.863.
0.898, 0.904, 0.904, 0.902, 0.899.
0.896, 0.899, 0.899, 0.899, 0.899.
0.881, 0.875, 0.869, 0.863, 0.857.
0.894, 0.894, 0.891, 0.885, 0.875.
0.899, 0.899, 0.899, 0.899, 0.899.
0.894, 0.891, 0.885, 0.879, 0.875.
0.909, 0.909, 0.909, 0.909, 0.909.
0.903, 0.899, 0.897, 0.899, 0.9.
0.899, 0.897, 0.897, 0.899, 0.901.
0.899, 0.899, 0.901, 0.905, 0.909.
0.922, 0.928, 0.931, 0.932, 0.932.
0.936, 0.939, 0.939, 0.939, 0.937.
0.939, 0.939, 0.939, 0.937, 0.932.
0.958, 0.958, 0.955, 0.952, 0.948.
0.95, 0.946, 0.942, 0.938, 0.935.
0.942, 0.938, 0.934, 0.932, 0.932.
0.945, 0.945, 0.946, 0.946, 0.946.
0.932, 0.928, 0.926, 0.926, 0.926.
0.938, 0.938, 0.938, 0.938, 0.938.
0.944, 0.946, 0.946, 0.946, 0.946.
0.954, 0.954, 0.954, 0.954, 0.954.
0.968, 0.968, 0.965, 0.963, 0.962.
0.962, 0.961, 0.961, 0.961, 0.961.
0.965, 0.962, 0.961, 0.961, 0.961.
0.962, 0.961, 0.961, 0.961, 0.961.
0.962, 0.961, 0.961, 0.961, 0.961.
0.961, 0.961, 0.961, 0.961, 0.961.
0.961, 0.961, 0.961, 0.961, 0.961.
0.958, 0.958, 0.958, 0.958, 0.958.
0.954, 0.954, 0.954, 0.954, 0.954.
0.948, 0.948, 0.949, 0.949, 0.949.
0.954, 0.955, 0.955, 0.955, 0.955.
0.958, 0.958, 0.958, 0.958, 0.958.
0.954, 0.954, 0.954, 0.954, 0.954.
0.955, 0.955, 0.955, 0.955, 0.955.
0.954, 0.954, 0.954, 0.954, 0.954.
0.939, 0.932, 0.926, 0.923, 0.923.
0.922, 0.916, 0.916, 0.916, 0.916.
0.916, 0.915, 0.916, 0.916, 0.916.
0.896, 0.892, 0.892, 0.896, 0.901.
0.86, 0.857, 0.862, 0.871, 0.882.
0.783, 0.778, 0.791, 0.817, 0.842.
0.823, 0.843, 0.862, 0.878, 0.889.
0.904, 0.927, 0.937, 0.941, 0.942.
0.939, 0.946, 0.948, 0.948, 0.948.
0.951, 0.953, 0.953, 0.953, 0.953.
0.941, 0.942, 0.942, 0.942, 0.942.
0.949, 0.949, 0.948, 0.948, 0.948.
0.941, 0.941, 0.941, 0.941, 0.941.
0.932, 0.929, 0.927, 0.926, 0.926.
0.922, 0.918, 0.916, 0.916, 0.916.
0.909, 0.906, 0.905, 0.905, 0.906.
0.884, 0.879, 0.879, 0.882, 0.885.
0.875, 0.875, 0.879, 0.882, 0.885.
0.869, 0.869, 0.869, 0.869, 0.869.
0.868, 0.871, 0.875, 0.879, 0.879.
0.868, 0.871, 0.875, 0.879, 0.879.
0.86, 0.863, 0.863, 0.859, 0.852.
0.843, 0.838, 0.832, 0.824, 0.817.
0.843, 0.843, 0.843, 0.843, 0.843.
0.857, 0.859, 0.859, 0.859, 0.859.
0.853, 0.853, 0.853, 0.853, 0.853.
0.834, 0.826, 0.821, 0.821, 0.826.
0.821, 0.813, 0.811, 0.816, 0.826.
0.821, 0.823, 0.831, 0.842, 0.852.
0.876, 0.893, 0.901, 0.905, 0.909.
0.901, 0.912, 0.918, 0.919, 0.919.
