0.852, 0.852, 0.852, 0.852, 0.852.
0.851, 0.852, 0.853, 0.853, 0.853.
0.835, 0.832, 0.832, 0.832, 0.832.
0.832, 0.832, 0.832, 0.832, 0.832.
0.807, 0.802, 0.801, 0.802, 0.803.
0.783, 0.771, 0.761, 0.757, 0.761.
0.771, 0.764, 0.757, 0.757, 0.761.
0.761, 0.757, 0.757, 0.761, 0.769.
0.748, 0.744, 0.745, 0.755, 0.769.
0.742, 0.745, 0.755, 0.767, 0.778.
0.719, 0.719, 0.729, 0.745, 0.761.
0.719, 0.718, 0.717, 0.717, 0.717.
0.733, 0.747, 0.761, 0.775, 0.785.
0.745, 0.761, 0.775, 0.786, 0.798.
0.713, 0.708, 0.708, 0.708, 0.708.
0.678, 0.663, 0.657, 0.657, 0.657.
0.687, 0.696, 0.713, 0.733, 0.747.
0.717, 0.741, 0.761, 0.775, 0.784.
0.745, 0.761, 0.775, 0.786, 0.796.
0.757, 0.769, 0.775, 0.778, 0.778.
0.765, 0.774, 0.778, 0.778, 0.775.
0.81, 0.832, 0.847, 0.858, 0.861.
0.784, 0.784, 0.784, 0.784, 0.784.
0.789, 0.789, 0.789, 0.789, 0.789.
0.817, 0.826, 0.831, 0.832, 0.832.
0.808, 0.805, 0.804, 0.804, 0.805.
0.84, 0.846, 0.846, 0.846, 0.846.
0.843, 0.846, 0.846, 0.846, 0.846.
0.85, 0.851, 0.851, 0.851, 0.851.
0.846, 0.846, 0.846, 0.846, 0.846.
0.841, 0.837, 0.832, 0.824, 0.817.
0.845, 0.845, 0.845, 0.845, 0.844.
0.807, 0.795, 0.788, 0.784, 0.784.
0.802, 0.795, 0.789, 0.784, 0.784.
0.813, 0.813, 0.813, 0.813, 0.813.
0.826, 0.831, 0.832, 0.832, 0.832.
0.839, 0.842, 0.842, 0.842, 0.842.
0.837, 0.839, 0.839, 0.839, 0.839.
0.858, 0.862, 0.862, 0.862, 0.862.
0.858, 0.861, 0.862, 0.862, 0.862.
0.862, 0.862, 0.862, 0.862, 0.862.
0.867, 0.867, 0.867, 0.867, 0.867.
0.867, 0.867, 0.867, 0.867, 0.867.
0.861, 0.861, 0.861, 0.861, 0.861.
0.855, 0.853, 0.853, 0.853, 0.853.
0.853, 0.853, 0.853, 0.853, 0.853.
0.855, 0.853, 0.853, 0.853, 0.853.
0.859, 0.859, 0.859, 0.859, 0.859.
0.858, 0.859, 0.859, 0.859, 0.859.
0.849, 0.849, 0.849, 0.849, 0.849.
0.845, 0.845, 0.845, 0.845, 0.845.
0.845, 0.845, 0.845, 0.845, 0.845.
0.832, 0.832, 0.832, 0.832, 0.832.
0.806, 0.796, 0.788, 0.784, 0.784.
0.786, 0.778, 0.771, 0.764, 0.764.
0.772, 0.764, 0.757, 0.757, 0.764.
0.767, 0.767, 0.771, 0.778, 0.787.
0.76, 0.761, 0.767, 0.776, 0.787.
0.757, 0.764, 0.776, 0.787, 0.798.
0.776, 0.787, 0.796, 0.801, 0.803.
0.786, 0.796, 0.801, 0.803, 0.803.
0.796, 0.801, 0.803, 0.803, 0.803.
0.841, 0.858, 0.863, 0.863, 0.863.
0.842, 0.847, 0.847, 0.846, 0.846.
0.837, 0.837, 0.837, 0.837, 0.837.
0.826, 0.821, 0.818, 0.818, 0.818.
0.821, 0.818, 0.818, 0.818, 0.818.
0.837, 0.841, 0.845, 0.847, 0.847.
0.863, 0.869, 0.871, 0.871, 0.871.
0.908, 0.917, 0.918, 0.918, 0.918.
0.928, 0.931, 0.932, 0.932, 0.932.
0.936, 0.936, 0.936, 0.935, 0.932.
0.934, 0.933, 0.933, 0.933, 0.932.
0.926, 0.921, 0.915, 0.908, 0.899.
0.917, 0.909, 0.904, 0.901, 0.899.
0.893, 0.879, 0.867, 0.857, 0.852.
0.859, 0.834, 0.812, 0.801, 0.802.
0.889, 0.892, 0.896, 0.897, 0.897.
0.892, 0.895, 0.897, 0.897, 0.897.
0.892, 0.895, 0.897, 0.901, 0.903.
0.892, 0.895, 0.897, 0.901, 0.903.
0.879, 0.879, 0.882, 0.884, 0.886.
0.881, 0.886, 0.892, 0.896, 0.897.
0.877, 0.882, 0.892, 0.898, 0.897.
0.88, 0.886, 0.892, 0.896, 0.896.
0.87, 0.871, 0.871, 0.871, 0.871.
0.849, 0.844, 0.844, 0.844, 0.844.
0.863, 0.869, 0.873, 0.882, 0.892.
0.892, 0.906, 0.915, 0.921, 0.927.
0.897, 0.903, 0.906, 0.907, 0.907.
0.905, 0.906, 0.907, 0.907, 0.907.
0.924, 0.928, 0.931, 0.932, 0.932.
0.915, 0.915, 0.915, 0.915, 0.915.
0.916, 0.915, 0.915, 0.915, 0.915.
0.924, 0.927, 0.929, 0.931, 0.932.
0.909, 0.899, 0.891, 0.881, 0.871.
0.909, 0.9, 0.893, 0.891, 0.891.
0.903, 0.897, 0.894, 0.894, 0.894.
0.897, 0.894, 0.894, 0.894, 0.894.
0.879, 0.873, 0.873, 0.873, 0.873.
0.889, 0.892, 0.894, 0.894, 0.894.
0.885, 0.885, 0.885, 0.885, 0.885.
0.894, 0.894, 0.894, 0.894, 0.894.
0.903, 0.903, 0.898, 0.894, 0.892.
0.894, 0.894, 0.894, 0.894, 0.894.
0.892, 0.894, 0.894, 0.894, 0.894.
0.885, 0.885, 0.885, 0.885, 0.885.
0.87, 0.868, 0.868, 0.868, 0.868.
0.871, 0.871, 0.871, 0.872, 0.875.
0.871, 0.875, 0.882, 0.889, 0.894.
0.868, 0.868, 0.868, 0.868, 0.868.
0.871, 0.873, 0.875, 0.875, 0.875.
0.868, 0.868, 0.868, 0.868, 0.868.
0.875, 0.875, 0.875, 0.875, 0.875.
0.871, 0.871, 0.871, 0.871, 0.871.
0.885, 0.885, 0.885, 0.885, 0.885.
0.877, 0.875, 0.871, 0.868, 0.868.
0.875, 0.871, 0.868, 0.868, 0.868.
0.882, 0.885, 0.885, 0.885, 0.885.
0.885, 0.885, 0.885, 0.885, 0.885.
0.873, 0.871, 0.871, 0.871, 0.871.
0.864, 0.867, 0.868, 0.868, 0.868.
0.842, 0.842, 0.843, 0.843, 0.843.
0.833, 0.833, 0.833, 0.833, 0.833.
0.808, 0.799, 0.796, 0.796, 0.796.
0.788, 0.787, 0.791, 0.796, 0.803.
0.746, 0.733, 0.729, 0.729, 0.729.
0.738, 0.733, 0.733, 0.733, 0.733.
0.739, 0.739, 0.739, 0.739, 0.739.
0.767, 0.779, 0.787, 0.796, 0.803.
0.778, 0.787, 0.798, 0.806, 0.809.
0.802, 0.815, 0.826, 0.831, 0.831.
0.817, 0.826, 0.833, 0.837, 0.837.
0.84, 0.847, 0.849, 0.849, 0.849.
0.827, 0.829, 0.831, 0.832, 0.832.
0.799, 0.799, 0.801, 0.803, 0.808.
0.779, 0.774, 0.774, 0.778, 0.787.
0.778, 0.778, 0.778, 0.778, 0.779.
0.794, 0.803, 0.815, 0.826, 0.831.
0.802, 0.815, 0.826, 0.833, 0.837.
0.789, 0.792, 0.798, 0.803, 0.803.
0.801, 0.803, 0.803, 0.802, 0.8.
0.817, 0.823, 0.825, 0.825, 0.825.
0.84, 0.847, 0.847, 0.846, 0.846.
0.857, 0.862, 0.862, 0.862, 0.862.
0.821, 0.812, 0.801, 0.789, 0.779.
0.788, 0.768, 0.749, 0.729, 0.712.
0.766, 0.742, 0.723, 0.713, 0.712.
0.77, 0.761, 0.757, 0.761, 0.775.
0.757, 0.757, 0.764, 0.778, 0.798.
0.745, 0.745, 0.755, 0.769, 0.786.
0.763, 0.778, 0.789, 0.798, 0.803.
0.765, 0.778, 0.789, 0.798, 0.803.
0.785, 0.798, 0.803, 0.803, 0.8.
0.806, 0.815, 0.818, 0.817, 0.812.
0.803, 0.802, 0.802, 0.802, 0.8.
0.826, 0.831, 0.832, 0.832, 0.832.
0.842, 0.846, 0.846, 0.846, 0.846.
0.837, 0.837, 0.837, 0.837, 0.837.
0.863, 0.869, 0.869, 0.869, 0.869.
0.869, 0.869, 0.867, 0.867, 0.867.
0.872, 0.872, 0.872, 0.872, 0.872.
0.848, 0.846, 0.846, 0.846, 0.846.
0.839, 0.837, 0.837, 0.837, 0.837.
0.837, 0.837, 0.837, 0.837, 0.837.
0.842, 0.845, 0.846, 0.846, 0.846.
0.858, 0.865, 0.865, 0.862, 0.858.
0.852, 0.852, 0.852, 0.852, 0.852.
0.853, 0.853, 0.853, 0.853, 0.853.
0.853, 0.853, 0.853, 0.853, 0.853.
0.853, 0.853, 0.853, 0.853, 0.853.
0.853, 0.853, 0.853, 0.853, 0.853.
0.823, 0.811, 0.803, 0.799, 0.801.
0.817, 0.817, 0.817, 0.817, 0.817.
0.817, 0.817, 0.817, 0.817, 0.817.
0.837, 0.842, 0.845, 0.846, 0.846.
0.801, 0.793, 0.791, 0.791, 0.791.
0.793, 0.791, 0.796, 0.801, 0.803.
0.815, 0.826, 0.835, 0.841, 0.847.
0.818, 0.826, 0.835, 0.841, 0.846.
0.823, 0.827, 0.831, 0.832, 0.832.
0.821, 0.823, 0.827, 0.831, 0.832.
0.813, 0.809, 0.803, 0.797, 0.796.
0.827, 0.831, 0.832, 0.832, 0.832.
0.832, 0.832, 0.832, 0.832, 0.832.
0.855, 0.859, 0.859, 0.859, 0.859.
0.863, 0.867, 0.867, 0.867, 0.867.
0.875, 0.881, 0.886, 0.887, 0.887.
0.867, 0.867, 0.867, 0.867, 0.867.
0.863, 0.863, 0.863, 0.863, 0.863.
0.867, 0.867, 0.867, 0.867, 0.867.
0.883, 0.887, 0.887, 0.887, 0.887.
0.894, 0.897, 0.897, 0.897, 0.897.
0.896, 0.897, 0.897, 0.897, 0.897.
0.867, 0.857, 0.853, 0.853, 0.853.
0.819, 0.797, 0.788, 0.783, 0.781.
0.813, 0.803, 0.799, 0.799, 0.799.
0.811, 0.803, 0.799, 0.799, 0.799.
0.819, 0.821, 0.823, 0.825, 0.828.
0.83, 0.835, 0.837, 0.837, 0.837.
0.84, 0.845, 0.846, 0.846, 0.846.
0.844, 0.846, 0.846, 0.846, 0.846.
0.859, 0.863, 0.863, 0.863, 0.863.
0.863, 0.863, 0.863, 0.863, 0.863.
0.877, 0.882, 0.885, 0.885, 0.885.
0.875, 0.875, 0.875, 0.875, 0.875.
0.86, 0.858, 0.858, 0.859, 0.859.
0.843, 0.837, 0.837, 0.837, 0.837.
0.837, 0.837, 0.837, 0.837, 0.837.
0.839, 0.837, 0.837, 0.837, 0.837.
0.837, 0.837, 0.837, 0.837, 0.837.
0.835, 0.837, 0.837, 0.837, 0.837.
0.841, 0.845, 0.845, 0.845, 0.845.
0.844, 0.845, 0.845, 0.845, 0.845.
0.851, 0.853, 0.853, 0.853, 0.853.
0.862, 0.863, 0.862, 0.862, 0.862.
0.853, 0.853, 0.853, 0.853, 0.853.
0.855, 0.853, 0.853, 0.853, 0.853.
0.853, 0.853, 0.853, 0.853, 0.853.
0.881, 0.885, 0.885, 0.885, 0.886.
0.864, 0.864, 0.864, 0.864, 0.864.
0.832, 0.829, 0.831, 0.832, 0.832.
0.807, 0.799, 0.796, 0.796, 0.796.
0.846, 0.855, 0.863, 0.869, 0.869.
0.91, 0.928, 0.933, 0.933, 0.933.
0.915, 0.918, 0.918, 0.918, 0.918.
0.933, 0.935, 0.935, 0.932, 0.927.
0.933, 0.933, 0.933, 0.933, 0.932.
0.937, 0.934, 0.932, 0.929, 0.924.
0.937, 0.933, 0.929, 0.924, 0.919.
0.932, 0.929, 0.924, 0.919, 0.919.
0.933, 0.933, 0.933, 0.933, 0.933.
0.921, 0.915, 0.909, 0.904, 0.897.
0.934, 0.934, 0.933, 0.933, 0.933.
0.938, 0.938, 0.938, 0.938, 0.938.
0.941, 0.941, 0.941, 0.941, 0.941.
0.944, 0.944, 0.944, 0.944, 0.944.
0.949, 0.949, 0.949, 0.949, 0.949.
0.948, 0.949, 0.949, 0.949, 0.949.
0.949, 0.949, 0.949, 0.949, 0.949.
0.949, 0.949, 0.949, 0.947, 0.944.
0.944, 0.942, 0.941, 0.941, 0.941.
0.942, 0.941, 0.941, 0.941, 0.941.
0.929, 0.921, 0.919, 0.921, 0.926.
0.926, 0.926, 0.928, 0.933, 0.938.
0.909, 0.903, 0.899, 0.901, 0.903.
0.903, 0.899, 0.901, 0.903, 0.903.
0.903, 0.903, 0.903, 0.903, 0.903.
0.903, 0.903, 0.903, 0.903, 0.903.
0.906, 0.906, 0.903, 0.896, 0.889.
0.906, 0.905, 0.902, 0.896, 0.889.
0.909, 0.909, 0.909, 0.909, 0.909.
0.918, 0.919, 0.919, 0.919, 0.919.
0.909, 0.903, 0.896, 0.889, 0.884.
0.913, 0.913, 0.913, 0.913, 0.913.
0.926, 0.928, 0.928, 0.928, 0.928.
0.919, 0.918, 0.918, 0.918, 0.918.
0.918, 0.918, 0.918, 0.918, 0.918.
0.926, 0.928, 0.928, 0.928, 0.928.
0.933, 0.935, 0.936, 0.936, 0.936.
0.928, 0.928, 0.928, 0.928, 0.928.
0.921, 0.919, 0.919, 0.919, 0.919.
0.921, 0.919, 0.919, 0.919, 0.919.
0.919, 0.919, 0.919, 0.919, 0.919.
0.909, 0.901, 0.891, 0.882, 0.874.
0.915, 0.915, 0.915, 0.915, 0.915.
0.901, 0.891, 0.884, 0.884, 0.884.
0.901, 0.899, 0.899, 0.899, 0.899.
0.897, 0.896, 0.896, 0.896, 0.896.
0.896, 0.896, 0.896, 0.896, 0.896.
0.876, 0.864, 0.858, 0.856, 0.856.
0.884, 0.884, 0.884, 0.884, 0.884.
0.877, 0.875, 0.875, 0.875, 0.875.
0.875, 0.875, 0.875, 0.875, 0.875.
0.875, 0.875, 0.875, 0.875, 0.875.
0.884, 0.885, 0.885, 0.885, 0.885.
0.889, 0.889, 0.889, 0.889, 0.889.
0.897, 0.901, 0.903, 0.903, 0.903.
0.891, 0.892, 0.894, 0.894, 0.894.
0.885, 0.885, 0.885, 0.885, 0.885.
0.871, 0.868, 0.868, 0.868, 0.868.
0.862, 0.858, 0.858, 0.859, 0.859.
0.865, 0.868, 0.869, 0.869, 0.869.
0.85, 0.843, 0.837, 0.837, 0.837.
0.843, 0.839, 0.839, 0.839, 0.839.
0.85, 0.848, 0.846, 0.846, 0.846.
0.863, 0.867, 0.868, 0.868, 0.868.
0.869, 0.868, 0.868, 0.868, 0.868.
0.877, 0.882, 0.885, 0.885, 0.885.
0.877, 0.882, 0.885, 0.885, 0.885.
0.834, 0.813, 0.799, 0.788, 0.781.
0.754, 0.719, 0.701, 0.688, 0.684.
0.749, 0.739, 0.739, 0.745, 0.757.
0.763, 0.776, 0.787, 0.799, 0.815.
0.778, 0.789, 0.799, 0.815, 0.833.
0.757, 0.763, 0.776, 0.787, 0.798.
0.742, 0.746, 0.757, 0.769, 0.778.
0.783, 0.799, 0.812, 0.818, 0.818.
0.75, 0.753, 0.757, 0.763, 0.768.
0.733, 0.729, 0.729, 0.729, 0.729.
0.757, 0.769, 0.776, 0.778, 0.778.
0.791, 0.808, 0.815, 0.818, 0.818.
0.826, 0.841, 0.847, 0.847, 0.847.
0.813, 0.817, 0.818, 0.818, 0.818.
0.835, 0.837, 0.837, 0.837, 0.837.
0.857, 0.863, 0.863, 0.863, 0.863.
0.862, 0.863, 0.863, 0.863, 0.863.
0.882, 0.885, 0.885, 0.885, 0.885.
0.872, 0.872, 0.872, 0.869, 0.863.
0.869, 0.867, 0.863, 0.857, 0.849.
0.869, 0.867, 0.863, 0.857, 0.849.
0.867, 0.863, 0.857, 0.849, 0.837.
0.877, 0.872, 0.863, 0.852, 0.846.
0.878, 0.872, 0.863, 0.853, 0.849.
0.871, 0.864, 0.857, 0.848, 0.837.
0.848, 0.837, 0.832, 0.832, 0.832.
0.849, 0.849, 0.849, 0.849, 0.849.
0.839, 0.837, 0.837, 0.837, 0.837.
0.847, 0.846, 0.846, 0.846, 0.846.
0.86, 0.863, 0.863, 0.863, 0.863.
0.869, 0.869, 0.869, 0.869, 0.869.
0.899, 0.905, 0.906, 0.906, 0.906.
0.891, 0.891, 0.892, 0.894, 0.894.
0.899, 0.901, 0.902, 0.902, 0.902.
0.887, 0.885, 0.885, 0.885, 0.885.
0.891, 0.894, 0.894, 0.894, 0.894.
0.891, 0.894, 0.894, 0.894, 0.894.
0.871, 0.864, 0.857, 0.848, 0.844.
0.869, 0.869, 0.869, 0.869, 0.869.
0.867, 0.868, 0.869, 0.869, 0.869.
0.867, 0.869, 0.869, 0.869, 0.869.
0.85, 0.843, 0.843, 0.846, 0.846.
0.848, 0.846, 0.846, 0.846, 0.846.
0.853, 0.853, 0.853, 0.853, 0.853.
0.852, 0.853, 0.853, 0.853, 0.853.
0.837, 0.833, 0.833, 0.833, 0.833.
0.839, 0.837, 0.837, 0.837, 0.837.
0.846, 0.846, 0.846, 0.846, 0.846.
0.846, 0.846, 0.846, 0.846, 0.846.
0.846, 0.846, 0.846, 0.846, 0.846.
0.837, 0.837, 0.837, 0.837, 0.837.
0.822, 0.817, 0.817, 0.817, 0.817.
0.788, 0.784, 0.787, 0.791, 0.796.
0.778, 0.778, 0.778, 0.778, 0.778.
0.757, 0.761, 0.776, 0.791, 0.803.
0.729, 0.729, 0.739, 0.757, 0.778.
0.699, 0.688, 0.679, 0.676, 0.676.
0.718, 0.729, 0.745, 0.762, 0.778.
0.72, 0.727, 0.731, 0.731, 0.729.
0.723, 0.727, 0.729, 0.729, 0.729.
0.729, 0.729, 0.729, 0.729, 0.729.
0.789, 0.801, 0.803, 0.803, 0.803.
0.826, 0.841, 0.846, 0.846, 0.846.
0.833, 0.841, 0.845, 0.845, 0.845.
0.845, 0.845, 0.845, 0.845, 0.845.
0.849, 0.849, 0.849, 0.849, 0.849.
0.845, 0.845, 0.845, 0.845, 0.845.
0.845, 0.845, 0.845, 0.845, 0.845.
0.797, 0.788, 0.791, 0.798, 0.809.
0.797, 0.803, 0.815, 0.826, 0.835.
0.774, 0.774, 0.784, 0.796, 0.803.
0.729, 0.713, 0.708, 0.708, 0.708.
0.708, 0.688, 0.676, 0.666, 0.657.
0.686, 0.676, 0.666, 0.657, 0.657.
0.643, 0.625, 0.617, 0.617, 0.625.
0.607, 0.601, 0.601, 0.601, 0.605.
0.564, 0.546, 0.538, 0.538, 0.546.
0.538, 0.533, 0.538, 0.551, 0.563.
0.533, 0.533, 0.533, 0.538, 0.551.
0.525, 0.525, 0.533, 0.546, 0.563.
0.525, 0.533, 0.543, 0.561, 0.583.
0.512, 0.505, 0.505, 0.505, 0.505.
0.533, 0.556, 0.585, 0.618, 0.646.
0.546, 0.563, 0.584, 0.601, 0.607.
0.576, 0.601, 0.615, 0.624, 0.633.
0.549, 0.546, 0.546, 0.546, 0.546.
0.565, 0.583, 0.601, 0.602, 0.605.
0.576, 0.589, 0.601, 0.602, 0.605.
0.655, 0.697, 0.719, 0.733, 0.747.
0.666, 0.689, 0.704, 0.713, 0.712.
0.691, 0.704, 0.711, 0.713, 0.712.
0.717, 0.733, 0.743, 0.747, 0.743.
0.691, 0.676, 0.657, 0.634, 0.612.
0.702, 0.702, 0.697, 0.689, 0.679.
0.749, 0.765, 0.775, 0.775, 0.765.
0.777, 0.786, 0.789, 0.789, 0.789.
0.743, 0.722, 0.698, 0.676, 0.657.
0.698, 0.659, 0.633, 0.612, 0.597.
0.698, 0.688, 0.679, 0.673, 0.673.
0.658, 0.634, 0.617, 0.602, 0.601.
0.683, 0.676, 0.669, 0.667, 0.669.
0.764, 0.789, 0.805, 0.814, 0.819.
0.784, 0.796, 0.801, 0.804, 0.804.
0.743, 0.727, 0.718, 0.714, 0.712.
0.796, 0.804, 0.804, 0.804, 0.804.
0.784, 0.784, 0.784, 0.784, 0.784.
0.798, 0.801, 0.804, 0.804, 0.804.
0.796, 0.796, 0.796, 0.798, 0.803.
0.762, 0.743, 0.729, 0.718, 0.714.
0.733, 0.712, 0.698, 0.688, 0.687.
0.742, 0.743, 0.747, 0.756, 0.769.
0.729, 0.729, 0.733, 0.745, 0.761.
0.726, 0.733, 0.747, 0.762, 0.775.
0.686, 0.687, 0.705, 0.726, 0.743.
0.619, 0.599, 0.599, 0.599, 0.599.
0.607, 0.602, 0.602, 0.602, 0.605.
0.625, 0.641, 0.657, 0.667, 0.676.
0.657, 0.667, 0.666, 0.661, 0.657.
0.736, 0.761, 0.775, 0.778, 0.775.
0.808, 0.825, 0.825, 0.825, 0.825.
0.825, 0.827, 0.825, 0.825, 0.825.
0.818, 0.812, 0.812, 0.818, 0.825.
0.838, 0.841, 0.841, 0.841, 0.841.
0.825, 0.818, 0.811, 0.807, 0.804.
0.819, 0.818, 0.818, 0.818, 0.819.
0.839, 0.844, 0.844, 0.844, 0.844.
0.855, 0.862, 0.863, 0.862, 0.862.
0.867, 0.872, 0.872, 0.872, 0.872.
0.882, 0.885, 0.885, 0.885, 0.885.
0.905, 0.909, 0.908, 0.905, 0.902.
0.907, 0.905, 0.904, 0.904, 0.902.
0.907, 0.905, 0.904, 0.904, 0.902.
0.884, 0.872, 0.859, 0.844, 0.827.
0.865, 0.852, 0.842, 0.837, 0.837.
0.862, 0.858, 0.854, 0.852, 0.852.
0.853, 0.851, 0.852, 0.852, 0.852.
0.854, 0.854, 0.854, 0.854, 0.854.
0.849, 0.849, 0.849, 0.849, 0.849.
0.834, 0.837, 0.847, 0.859, 0.869.
0.826, 0.828, 0.837, 0.847, 0.857.
0.82, 0.823, 0.828, 0.831, 0.831.
0.818, 0.821, 0.823, 0.823, 0.823.
0.827, 0.831, 0.832, 0.831, 0.831.
0.821, 0.823, 0.823, 0.823, 0.823.
0.836, 0.837, 0.837, 0.837, 0.837.
0.831, 0.831, 0.831, 0.831, 0.832.
0.831, 0.831, 0.832, 0.832, 0.832.
0.867, 0.882, 0.891, 0.897, 0.901.
0.867, 0.867, 0.867, 0.867, 0.867.
0.886, 0.891, 0.894, 0.896, 0.896.
0.905, 0.913, 0.915, 0.915, 0.915.
0.911, 0.913, 0.913, 0.913, 0.913.
0.901, 0.902, 0.902, 0.897, 0.892.
0.902, 0.902, 0.9, 0.893, 0.887.
0.902, 0.902, 0.9, 0.897, 0.894.
0.898, 0.894, 0.892, 0.892, 0.892.
0.897, 0.894, 0.894, 0.894, 0.894.
0.894, 0.894, 0.894, 0.894, 0.894.
0.894, 0.894, 0.894, 0.894, 0.894.
0.894, 0.894, 0.894, 0.894, 0.894.
0.897, 0.896, 0.896, 0.896, 0.896.
0.896, 0.896, 0.896, 0.896, 0.896.
0.9, 0.897, 0.894, 0.894, 0.894.
0.903, 0.902, 0.9, 0.896, 0.894.
0.898, 0.894, 0.894, 0.894, 0.894.
0.896, 0.894, 0.894, 0.894, 0.894.
0.894, 0.894, 0.894, 0.894, 0.894.
0.881, 0.881, 0.881, 0.881, 0.881.
0.889, 0.894, 0.901, 0.903, 0.903.
0.891, 0.896, 0.901, 0.903, 0.903.
0.87, 0.868, 0.868, 0.868, 0.868.
0.869, 0.868, 0.868, 0.868, 0.868.
0.892, 0.901, 0.903, 0.903, 0.903.
0.901, 0.903, 0.903, 0.902, 0.9.
0.906, 0.907, 0.907, 0.907, 0.907.
0.903, 0.903, 0.903, 0.902, 0.9.
0.902, 0.9, 0.894, 0.889, 0.884.
0.902, 0.9, 0.894, 0.891, 0.891.
0.909, 0.909, 0.909, 0.909, 0.909.
0.909, 0.909, 0.909, 0.909, 0.909.
0.923, 0.926, 0.926, 0.926, 0.926.
0.923, 0.926, 0.926, 0.926, 0.926.
0.919, 0.918, 0.918, 0.918, 0.918.
0.913, 0.913, 0.913, 0.913, 0.913.
0.909, 0.909, 0.909, 0.909, 0.909.
0.898, 0.894, 0.894, 0.894, 0.894.
0.899, 0.896, 0.894, 0.894, 0.894.
0.894, 0.891, 0.884, 0.873, 0.863.
0.887, 0.881, 0.873, 0.863, 0.856.
0.881, 0.873, 0.868, 0.863, 0.858.
0.881, 0.881, 0.881, 0.881, 0.881.
0.877, 0.876, 0.876, 0.876, 0.876.
0.881, 0.881, 0.881, 0.881, 0.881.
0.892, 0.898, 0.903, 0.903, 0.902.
0.892, 0.894, 0.894, 0.894, 0.894.
0.892, 0.894, 0.894, 0.894, 0.894.
0.884, 0.883, 0.883, 0.884, 0.884.
0.892, 0.894, 0.894, 0.894, 0.894.
0.894, 0.894, 0.894, 0.894, 0.894.
0.887, 0.889, 0.894, 0.898, 0.901.
0.86, 0.848, 0.846, 0.846, 0.846.
0.851, 0.846, 0.846, 0.846, 0.846.
0.845, 0.845, 0.846, 0.846, 0.846.
0.825, 0.818, 0.817, 0.817, 0.817.
0.821, 0.818, 0.817, 0.817, 0.817.
0.85, 0.858, 0.862, 0.862, 0.862.
0.871, 0.881, 0.885, 0.886, 0.885.
0.882, 0.885, 0.885, 0.885, 0.885.
0.905, 0.907, 0.907, 0.906, 0.902.
0.912, 0.912, 0.909, 0.906, 0.902.
0.899, 0.893, 0.885, 0.881, 0.881.
0.886, 0.881, 0.881, 0.881, 0.881.
0.885, 0.881, 0.881, 0.881, 0.881.
0.881, 0.881, 0.881, 0.881, 0.881.
0.87, 0.868, 0.868, 0.868, 0.868.
0.868, 0.868, 0.868, 0.868, 0.868.
0.849, 0.844, 0.844, 0.844, 0.844.
0.813, 0.799, 0.796, 0.801, 0.809.
0.792, 0.788, 0.791, 0.796, 0.803.
0.782, 0.778, 0.778, 0.778, 0.778.
0.761, 0.763, 0.771, 0.778, 0.778.
0.714, 0.708, 0.708, 0.708, 0.708.
0.708, 0.708, 0.708, 0.708, 0.708.
0.712, 0.708, 0.708, 0.708, 0.708.
0.745, 0.762, 0.775, 0.785, 0.792.
0.743, 0.747, 0.753, 0.764, 0.778.
0.742, 0.747, 0.753, 0.764, 0.778.
0.743, 0.747, 0.753, 0.764, 0.778.
0.729, 0.729, 0.729, 0.729, 0.729.
0.686, 0.678, 0.678, 0.678, 0.678.
0.688, 0.688, 0.692, 0.696, 0.705.
0.688, 0.692, 0.696, 0.703, 0.705.
0.661, 0.657, 0.657, 0.657, 0.657.
0.657, 0.657, 0.657, 0.657, 0.657.
0.638, 0.633, 0.633, 0.633, 0.633.
0.676, 0.689, 0.697, 0.699, 0.699.
0.704, 0.717, 0.723, 0.727, 0.729.
0.729, 0.733, 0.733, 0.733, 0.732.
0.77, 0.784, 0.789, 0.789, 0.789.
0.792, 0.801, 0.803, 0.804, 0.807.
0.784, 0.784, 0.784, 0.784, 0.784.
0.761, 0.747, 0.733, 0.727, 0.727.
0.732, 0.713, 0.698, 0.688, 0.687.
0.655, 0.619, 0.599, 0.593, 0.593.
0.642, 0.633, 0.636, 0.647, 0.667.
0.617, 0.607, 0.607, 0.617, 0.633.
0.617, 0.633, 0.657, 0.683, 0.702.
0.633, 0.657, 0.676, 0.691, 0.702.
0.622, 0.631, 0.646, 0.657, 0.657.
0.625, 0.631, 0.631, 0.624, 0.607.
0.649, 0.657, 0.657, 0.657, 0.657.
0.644, 0.646, 0.646, 0.646, 0.646.
0.631, 0.624, 0.617, 0.607, 0.607.
0.624, 0.617, 0.612, 0.607, 0.607.
0.633, 0.633, 0.636, 0.647, 0.667.
0.633, 0.633, 0.642, 0.657, 0.676.
0.661, 0.676, 0.691, 0.707, 0.727.
0.705, 0.733, 0.761, 0.786, 0.805.
0.786, 0.825, 0.847, 0.858, 0.862.
0.836, 0.858, 0.862, 0.862, 0.862.
0.874, 0.882, 0.881, 0.874, 0.865.
0.895, 0.901, 0.904, 0.904, 0.899.
0.892, 0.892, 0.887, 0.879, 0.865.
0.884, 0.875, 0.865, 0.852, 0.834.
0.872, 0.865, 0.854, 0.843, 0.837.
0.862, 0.852, 0.843, 0.837, 0.837.
0.862, 0.862, 0.862, 0.862, 0.862.
0.821, 0.799, 0.793, 0.798, 0.809.
0.804, 0.793, 0.798, 0.809, 0.817.
0.792, 0.791, 0.798, 0.809, 0.817.
0.778, 0.778, 0.784, 0.796, 0.809.
0.774, 0.778, 0.782, 0.784, 0.784.
0.763, 0.761, 0.761, 0.761, 0.761.
0.786, 0.795, 0.799, 0.799, 0.799.
0.808, 0.815, 0.818, 0.818, 0.818.
0.799, 0.799, 0.799, 0.799, 0.799.
0.778, 0.766, 0.761, 0.761, 0.767.
0.799, 0.803, 0.805, 0.808, 0.812.
0.845, 0.863, 0.874, 0.881, 0.885.
0.885, 0.899, 0.906, 0.909, 0.909.
0.862, 0.861, 0.861, 0.862, 0.862.
0.889, 0.899, 0.905, 0.909, 0.909.
0.905, 0.907, 0.907, 0.907, 0.906.
0.905, 0.907, 0.907, 0.906, 0.902.
0.906, 0.905, 0.902, 0.897, 0.892.
0.899, 0.894, 0.892, 0.892, 0.892.
0.896, 0.896, 0.896, 0.896, 0.896.
0.896, 0.896, 0.896, 0.896, 0.896.
0.897, 0.896, 0.896, 0.896, 0.896.
0.898, 0.896, 0.896, 0.896, 0.896.
0.887, 0.879, 0.869, 0.859, 0.852.
0.881, 0.872, 0.862, 0.852, 0.846.
0.866, 0.862, 0.862, 0.862, 0.862.
0.871, 0.869, 0.869, 0.869, 0.869.
0.877, 0.879, 0.882, 0.882, 0.881.
0.877, 0.876, 0.875, 0.875, 0.875.
0.892, 0.898, 0.902, 0.903, 0.904.
0.895, 0.897, 0.897, 0.897, 0.897.
0.901, 0.902, 0.902, 0.902, 0.902.
0.896, 0.896, 0.896, 0.897, 0.898.
0.896, 0.896, 0.896, 0.896, 0.896.
0.901, 0.902, 0.902, 0.902, 0.902.
0.909, 0.909, 0.909, 0.909, 0.909.
0.914, 0.914, 0.914, 0.914, 0.914.
0.913, 0.914, 0.914, 0.914, 0.914.
0.914, 0.914, 0.914, 0.914, 0.914.
0.913, 0.914, 0.914, 0.914, 0.914.
0.909, 0.909, 0.909, 0.909, 0.909.
0.909, 0.909, 0.909, 0.909, 0.909.
0.903, 0.897, 0.894, 0.894, 0.894.
0.896, 0.894, 0.894, 0.894, 0.894.
0.898, 0.896, 0.894, 0.894, 0.894.
0.887, 0.875, 0.863, 0.856, 0.852.
0.884, 0.875, 0.865, 0.856, 0.846.
0.885, 0.885, 0.885, 0.885, 0.884.
0.87, 0.868, 0.868, 0.868, 0.868.
0.868, 0.868, 0.868, 0.868, 0.868.
0.868, 0.868, 0.868, 0.868, 0.868.
0.867, 0.868, 0.868, 0.868, 0.868.
0.868, 0.868, 0.868, 0.868, 0.868.
0.869, 0.868, 0.868, 0.868, 0.868.
0.877, 0.882, 0.885, 0.885, 0.885.
0.869, 0.868, 0.868, 0.868, 0.868.
0.868, 0.868, 0.868, 0.868, 0.868.
0.87, 0.868, 0.868, 0.868, 0.868.
0.882, 0.885, 0.885, 0.885, 0.885.
0.891, 0.894, 0.894, 0.894, 0.894.
0.887, 0.887, 0.887, 0.887, 0.887.
0.871, 0.864, 0.862, 0.862, 0.862.
0.858, 0.852, 0.852, 0.852, 0.852.
0.85, 0.848, 0.848, 0.848, 0.848.
0.848, 0.846, 0.846, 0.846, 0.846.
0.846, 0.846, 0.846, 0.846, 0.846.
0.843, 0.843, 0.843, 0.843, 0.843.
0.843, 0.843, 0.843, 0.843, 0.843.
0.833, 0.833, 0.833, 0.833, 0.833.
0.823, 0.823, 0.823, 0.823, 0.823.
0.821, 0.823, 0.823, 0.823, 0.823.
0.813, 0.813, 0.813, 0.813, 0.813.
0.819, 0.823, 0.823, 0.823, 0.823.
0.803, 0.799, 0.801, 0.803, 0.803.
0.799, 0.801, 0.803, 0.803, 0.803.
0.788, 0.787, 0.787, 0.787, 0.787.
0.798, 0.801, 0.803, 0.803, 0.803.
0.806, 0.807, 0.807, 0.808, 0.809.
0.826, 0.833, 0.837, 0.837, 0.837.
0.833, 0.837, 0.837, 0.837, 0.837.
0.813, 0.809, 0.809, 0.809, 0.809.
0.788, 0.784, 0.784, 0.784, 0.784.
0.794, 0.798, 0.799, 0.799, 0.799.
0.801, 0.803, 0.803, 0.803, 0.803.
0.813, 0.823, 0.832, 0.837, 0.837.
0.817, 0.817, 0.817, 0.817, 0.817.
0.827, 0.832, 0.832, 0.832, 0.832.
0.819, 0.819, 0.821, 0.823, 0.823.
0.83, 0.832, 0.832, 0.832, 0.832.
0.832, 0.832, 0.832, 0.832, 0.832.
0.821, 0.819, 0.819, 0.821, 0.823.
0.801, 0.793, 0.787, 0.784, 0.784.
0.765, 0.747, 0.738, 0.732, 0.732.
0.747, 0.738, 0.732, 0.732, 0.739.
0.729, 0.729, 0.732, 0.739, 0.745.
0.736, 0.747, 0.761, 0.775, 0.785.
0.707, 0.701, 0.702, 0.707, 0.713.
0.688, 0.685, 0.687, 0.696, 0.717.
0.664, 0.657, 0.657, 0.657, 0.657.
0.633, 0.625, 0.625, 0.632, 0.644.
0.614, 0.607, 0.607, 0.607, 0.607.
0.614, 0.617, 0.625, 0.631, 0.638.
0.628, 0.644, 0.657, 0.667, 0.676.
0.647, 0.661, 0.675, 0.685, 0.696.
0.657, 0.667, 0.676, 0.685, 0.696.
0.628, 0.625, 0.625, 0.625, 0.625.
0.644, 0.657, 0.667, 0.676, 0.685.
0.625, 0.625, 0.633, 0.647, 0.661.
0.628, 0.636, 0.647, 0.661, 0.676.
0.609, 0.607, 0.607, 0.607, 0.607.
0.607, 0.607, 0.607, 0.607, 0.607.
0.613, 0.617, 0.617, 0.617, 0.617.
0.607, 0.607, 0.607, 0.607, 0.607.
0.633, 0.654, 0.667, 0.674, 0.675.
0.657, 0.669, 0.675, 0.675, 0.665.
0.663, 0.667, 0.667, 0.663, 0.657.
0.689, 0.704, 0.713, 0.713, 0.705.
0.723, 0.732, 0.732, 0.727, 0.719.
0.731, 0.732, 0.732, 0.732, 0.731.
0.733, 0.727, 0.713, 0.695, 0.681.
0.713, 0.695, 0.681, 0.676, 0.676.
0.695, 0.683, 0.676, 0.676, 0.684.
0.673, 0.664, 0.664, 0.673, 0.689.
0.641, 0.632, 0.636, 0.647, 0.661.
0.633, 0.642, 0.657, 0.669, 0.676.
0.633, 0.649, 0.664, 0.676, 0.689.
0.633, 0.647, 0.661, 0.669, 0.669.
0.636, 0.647, 0.657, 0.663, 0.663.
0.661, 0.676, 0.683, 0.685, 0.685.
0.617, 0.607, 0.607, 0.607, 0.607.
0.607, 0.599, 0.599, 0.599, 0.599.
0.599, 0.599, 0.599, 0.599, 0.599.
0.617, 0.624, 0.633, 0.647, 0.663.
0.633, 0.654, 0.669, 0.684, 0.702.
0.633, 0.648, 0.663, 0.676, 0.689.
0.617, 0.617, 0.622, 0.633, 0.647.
0.633, 0.647, 0.661, 0.676, 0.689.
0.626, 0.633, 0.647, 0.663, 0.676.
0.604, 0.599, 0.599, 0.599, 0.599.
0.587, 0.587, 0.587, 0.587, 0.587.
0.578, 0.583, 0.587, 0.587, 0.587.
0.576, 0.587, 0.601, 0.606, 0.607.
0.587, 0.601, 0.606, 0.607, 0.607.
0.585, 0.587, 0.587, 0.587, 0.587.
0.564, 0.561, 0.561, 0.561, 0.562.
0.548, 0.546, 0.546, 0.546, 0.546.
0.551, 0.551, 0.551, 0.551, 0.551.
0.546, 0.546, 0.546, 0.546, 0.546.
0.546, 0.546, 0.546, 0.546, 0.546.
0.511, 0.498, 0.489, 0.489, 0.501.
0.525, 0.533, 0.542, 0.551, 0.563.
0.546, 0.565, 0.585, 0.601, 0.606.
0.574, 0.589, 0.601, 0.606, 0.612.
0.548, 0.549, 0.549, 0.549, 0.549.
0.546, 0.546, 0.546, 0.546, 0.546.
0.565, 0.576, 0.583, 0.587, 0.589.
0.576, 0.576, 0.576, 0.576, 0.576.
0.617, 0.633, 0.642, 0.646, 0.646.
0.634, 0.647, 0.657, 0.662, 0.662.
0.684, 0.701, 0.706, 0.705, 0.705.
0.71, 0.719, 0.723, 0.727, 0.731.
0.753, 0.765, 0.773, 0.775, 0.775.
0.757, 0.761, 0.761, 0.761, 0.761.
0.762, 0.762, 0.762, 0.762, 0.762.
0.779, 0.779, 0.779, 0.779, 0.779.
0.791, 0.796, 0.798, 0.798, 0.798.
0.789, 0.787, 0.787, 0.787, 0.787.
0.769, 0.749, 0.719, 0.692, 0.676.
0.719, 0.692, 0.676, 0.657, 0.642.
0.68, 0.653, 0.634, 0.625, 0.625.
0.68, 0.676, 0.676, 0.676, 0.676.
0.676, 0.676, 0.676, 0.676, 0.676.
0.664, 0.657, 0.657, 0.657, 0.657.
0.666, 0.666, 0.666, 0.667, 0.669.
0.673, 0.676, 0.676, 0.676, 0.676.
0.676, 0.676, 0.676, 0.676, 0.676.
0.69, 0.696, 0.706, 0.713, 0.719.
0.666, 0.657, 0.652, 0.652, 0.652.
0.649, 0.642, 0.642, 0.647, 0.657.
0.654, 0.657, 0.661, 0.669, 0.676.
0.688, 0.714, 0.733, 0.747, 0.761.
0.702, 0.715, 0.724, 0.733, 0.747.
0.705, 0.717, 0.733, 0.747, 0.761.
0.714, 0.726, 0.733, 0.733, 0.733.
0.726, 0.733, 0.733, 0.733, 0.733.
0.767, 0.789, 0.805, 0.814, 0.814.
0.789, 0.799, 0.801, 0.799, 0.799.
0.798, 0.799, 0.799, 0.799, 0.799.
0.784, 0.779, 0.767, 0.749, 0.729.
0.742, 0.729, 0.713, 0.698, 0.687.
0.708, 0.692, 0.683, 0.679, 0.683.
0.68, 0.665, 0.657, 0.657, 0.663.
0.633, 0.609, 0.594, 0.592, 0.599.
0.683, 0.704, 0.726, 0.743, 0.757.
0.673, 0.678, 0.689, 0.704, 0.715.
0.661, 0.657, 0.657, 0.657, 0.657.
0.649, 0.646, 0.646, 0.646, 0.646.
0.633, 0.633, 0.633, 0.633, 0.633.
0.642, 0.646, 0.646, 0.646, 0.646.
0.676, 0.691, 0.707, 0.727, 0.743.
0.714, 0.733, 0.743, 0.747, 0.747.
0.727, 0.731, 0.731, 0.731, 0.731.
0.81, 0.837, 0.858, 0.869, 0.874.
0.826, 0.841, 0.847, 0.849, 0.849.
0.818, 0.818, 0.818, 0.818, 0.818.
0.825, 0.828, 0.831, 0.832, 0.831.
0.827, 0.831, 0.832, 0.832, 0.831.
0.823, 0.823, 0.823, 0.823, 0.823.
0.822, 0.823, 0.823, 0.823, 0.823.
0.813, 0.813, 0.813, 0.813, 0.813.
0.798, 0.799, 0.799, 0.799, 0.799.
0.798, 0.799, 0.799, 0.799, 0.799.
0.803, 0.799, 0.799, 0.801, 0.803.
0.807, 0.807, 0.807, 0.807, 0.805.
0.813, 0.816, 0.819, 0.823, 0.823.
0.819, 0.823, 0.823, 0.823, 0.823.
0.816, 0.819, 0.821, 0.823, 0.823.
0.811, 0.811, 0.811, 0.811, 0.811.
0.821, 0.823, 0.823, 0.823, 0.823.
0.813, 0.811, 0.811, 0.811, 0.811.
0.821, 0.823, 0.823, 0.823, 0.823.
0.832, 0.832, 0.832, 0.832, 0.832.
0.848, 0.851, 0.853, 0.853, 0.853.
0.859, 0.859, 0.859, 0.859, 0.859.
0.855, 0.853, 0.853, 0.853, 0.853.
0.853, 0.853, 0.853, 0.853, 0.853.
0.863, 0.863, 0.862, 0.862, 0.862.
0.863, 0.862, 0.862, 0.862, 0.862.
0.858, 0.853, 0.853, 0.853, 0.853.
0.858, 0.855, 0.853, 0.853, 0.853.
0.843, 0.837, 0.833, 0.832, 0.832.
0.839, 0.837, 0.837, 0.837, 0.837.
0.837, 0.837, 0.837, 0.837, 0.837.
0.844, 0.845, 0.845, 0.845, 0.845.
0.843, 0.845, 0.845, 0.845, 0.845.
0.821, 0.818, 0.818, 0.818, 0.819.
0.823, 0.823, 0.823, 0.823, 0.823.
0.823, 0.823, 0.823, 0.823, 0.823.
0.823, 0.823, 0.823, 0.823, 0.823.
0.831, 0.832, 0.832, 0.832, 0.832.
0.823, 0.823, 0.823, 0.823, 0.823.
0.823, 0.823, 0.823, 0.823, 0.823.
0.823, 0.823, 0.823, 0.823, 0.823.
0.827, 0.831, 0.832, 0.832, 0.832.
0.819, 0.819, 0.821, 0.823, 0.823.
0.821, 0.819, 0.819, 0.821, 0.823.
0.841, 0.845, 0.845, 0.845, 0.845.
0.845, 0.845, 0.845, 0.845, 0.845.
0.837, 0.837, 0.837, 0.837, 0.837.
0.827, 0.821, 0.819, 0.819, 0.819.
0.821, 0.819, 0.819, 0.819, 0.819.
0.831, 0.832, 0.832, 0.832, 0.832.
0.831, 0.832, 0.832, 0.832, 0.832.
0.841, 0.845, 0.845, 0.845, 0.845.
0.832, 0.832, 0.832, 0.832, 0.832.
0.827, 0.827, 0.827, 0.827, 0.827.
0.821, 0.819, 0.819, 0.819, 0.821.
0.813, 0.808, 0.801, 0.799, 0.799.
0.831, 0.832, 0.832, 0.832, 0.832.
0.845, 0.845, 0.845, 0.845, 0.845.
0.835, 0.832, 0.832, 0.832, 0.832.
0.821, 0.819, 0.819, 0.819, 0.821.
0.841, 0.841, 0.841, 0.841, 0.841.
0.855, 0.855, 0.855, 0.855, 0.855.
0.838, 0.837, 0.837, 0.837, 0.837.
0.835, 0.832, 0.832, 0.832, 0.832.
0.827, 0.828, 0.831, 0.832, 0.832.
0.826, 0.828, 0.831, 0.832, 0.832.
0.827, 0.831, 0.832, 0.832, 0.832.
0.841, 0.845, 0.845, 0.845, 0.845.
0.827, 0.827, 0.828, 0.831, 0.832.
0.821, 0.819, 0.819, 0.821, 0.823.
0.799, 0.788, 0.784, 0.784, 0.784.
0.816, 0.819, 0.821, 0.823, 0.823.
0.827, 0.831, 0.832, 0.832, 0.832.
0.832, 0.832, 0.832, 0.832, 0.832.
0.851, 0.853, 0.853, 0.853, 0.853.
0.853, 0.853, 0.853, 0.853, 0.853.
0.857, 0.855, 0.853, 0.853, 0.853.
0.861, 0.861, 0.861, 0.861, 0.861.
0.867, 0.867, 0.867, 0.867, 0.867.
0.875, 0.875, 0.875, 0.875, 0.875.
0.877, 0.875, 0.875, 0.875, 0.875.
0.887, 0.891, 0.894, 0.894, 0.894.
0.875, 0.875, 0.875, 0.875, 0.875.
0.874, 0.875, 0.875, 0.871, 0.864.
0.875, 0.875, 0.875, 0.875, 0.875.
0.885, 0.885, 0.885, 0.885, 0.885.
0.885, 0.885, 0.885, 0.885, 0.885.
0.891, 0.894, 0.894, 0.894, 0.894.
0.897, 0.899, 0.899, 0.899, 0.899.
0.887, 0.887, 0.887, 0.887, 0.887.
0.894, 0.894, 0.894, 0.894, 0.894.
0.897, 0.896, 0.894, 0.894, 0.894.
0.896, 0.894, 0.894, 0.894, 0.894.
0.899, 0.899, 0.899, 0.899, 0.899.
0.899, 0.899, 0.899, 0.899, 0.899.
0.894, 0.894, 0.894, 0.894, 0.894.
0.894, 0.894, 0.894, 0.894, 0.894.
0.894, 0.894, 0.894, 0.894, 0.894.
0.887, 0.887, 0.887, 0.887, 0.887.
0.881, 0.881, 0.881, 0.881, 0.881.
0.86, 0.856, 0.855, 0.855, 0.855.
0.856, 0.856, 0.856, 0.856, 0.856.
0.875, 0.882, 0.889, 0.894, 0.894.
0.883, 0.889, 0.894, 0.898, 0.9.
0.873, 0.871, 0.871, 0.871, 0.871.
0.894, 0.898, 0.899, 0.899, 0.899.
0.892, 0.894, 0.894, 0.894, 0.894.
0.892, 0.894, 0.894, 0.894, 0.894.
0.891, 0.894, 0.894, 0.894, 0.894.
0.889, 0.894, 0.898, 0.9, 0.898.
0.881, 0.881, 0.881, 0.881, 0.881.
0.881, 0.881, 0.881, 0.881, 0.881.
0.881, 0.881, 0.881, 0.881, 0.881.
0.881, 0.889, 0.894, 0.896, 0.896.
0.877, 0.881, 0.885, 0.885, 0.885.
0.871, 0.871, 0.871, 0.871, 0.871.
0.863, 0.862, 0.862, 0.862, 0.862.
0.867, 0.867, 0.867, 0.867, 0.867.
0.877, 0.881, 0.885, 0.885, 0.885.
0.895, 0.899, 0.899, 0.899, 0.899.
0.885, 0.885, 0.885, 0.885, 0.885.
0.881, 0.881, 0.881, 0.881, 0.881.
0.881, 0.881, 0.881, 0.881, 0.881.
0.881, 0.881, 0.881, 0.881, 0.881.
0.869, 0.868, 0.868, 0.868, 0.868.
0.871, 0.873, 0.875, 0.878, 0.881.
0.877, 0.881, 0.885, 0.885, 0.885.
0.871, 0.873, 0.875, 0.875, 0.875.
0.899, 0.906, 0.909, 0.909, 0.909.
0.892, 0.894, 0.894, 0.894, 0.894.
0.873, 0.871, 0.871, 0.871, 0.871.
0.849, 0.844, 0.843, 0.843, 0.843.
0.825, 0.813, 0.806, 0.801, 0.799.
0.818, 0.817, 0.817, 0.817, 0.817.
0.795, 0.791, 0.791, 0.791, 0.791.
0.779, 0.778, 0.778, 0.778, 0.778.
0.763, 0.757, 0.757, 0.757, 0.757.
0.784, 0.798, 0.812, 0.818, 0.818.
0.789, 0.799, 0.812, 0.818, 0.818.
0.778, 0.778, 0.778, 0.778, 0.778.
0.786, 0.798, 0.812, 0.818, 0.818.
0.757, 0.757, 0.757, 0.757, 0.757.
0.738, 0.733, 0.729, 0.729, 0.733.
0.729, 0.729, 0.729, 0.729, 0.729.
0.713, 0.708, 0.709, 0.713, 0.717.
0.713, 0.713, 0.713, 0.713, 0.713.
0.723, 0.733, 0.747, 0.761, 0.776.
0.713, 0.713, 0.713, 0.713, 0.713.
0.736, 0.747, 0.761, 0.775, 0.784.
0.727, 0.731, 0.733, 0.733, 0.733.
0.707, 0.708, 0.708, 0.708, 0.705.
0.708, 0.708, 0.708, 0.708, 0.705.
0.723, 0.731, 0.733, 0.733, 0.733.
0.708, 0.707, 0.707, 0.707, 0.705.
0.727, 0.733, 0.733, 0.733, 0.733.
0.763, 0.775, 0.775, 0.769, 0.761.
0.747, 0.747, 0.747, 0.747, 0.747.
0.753, 0.755, 0.755, 0.755, 0.755.
0.733, 0.729, 0.729, 0.729, 0.729.
0.675, 0.657, 0.644, 0.633, 0.625.
0.638, 0.625, 0.625, 0.637, 0.657.
0.657, 0.666, 0.676, 0.688, 0.697.
0.661, 0.669, 0.676, 0.687, 0.697.
0.697, 0.717, 0.733, 0.747, 0.757.
0.745, 0.767, 0.775, 0.775, 0.775.
0.789, 0.805, 0.814, 0.818, 0.819.
0.837, 0.858, 0.863, 0.862, 0.858.
0.825, 0.825, 0.825, 0.825, 0.825.
0.838, 0.837, 0.835, 0.832, 0.827.
0.852, 0.852, 0.852, 0.852, 0.852.
0.853, 0.853, 0.853, 0.853, 0.853.
0.804, 0.781, 0.766, 0.761, 0.761.
0.778, 0.761, 0.751, 0.752, 0.761.
0.789, 0.795, 0.803, 0.809, 0.815.
0.789, 0.795, 0.803, 0.805, 0.805.
0.798, 0.803, 0.805, 0.805, 0.805.
0.809, 0.818, 0.826, 0.831, 0.831.
0.834, 0.847, 0.849, 0.843, 0.834.
0.821, 0.818, 0.812, 0.804, 0.793.
0.807, 0.793, 0.778, 0.761, 0.747.
0.798, 0.799, 0.799, 0.799, 0.803.
0.789, 0.779, 0.769, 0.761, 0.761.
0.727, 0.699, 0.688, 0.688, 0.701.
0.754, 0.761, 0.775, 0.789, 0.803.
0.719, 0.713, 0.717, 0.729, 0.745.
0.745, 0.761, 0.775, 0.789, 0.803.
0.745, 0.761, 0.778, 0.789, 0.798.
0.754, 0.769, 0.783, 0.796, 0.803.
0.727, 0.729, 0.731, 0.731, 0.731.
0.757, 0.778, 0.791, 0.799, 0.803.
0.775, 0.789, 0.798, 0.801, 0.803.
0.787, 0.796, 0.801, 0.802, 0.8.
0.821, 0.832, 0.837, 0.837, 0.837.
0.827, 0.831, 0.832, 0.832, 0.832.
0.799, 0.789, 0.782, 0.779, 0.779.
0.827, 0.832, 0.832, 0.832, 0.832.
0.875, 0.889, 0.897, 0.901, 0.903.
0.912, 0.921, 0.927, 0.931, 0.932.
0.905, 0.905, 0.904, 0.904, 0.902.
0.912, 0.912, 0.912, 0.912, 0.909.
0.918, 0.918, 0.918, 0.918, 0.915.
0.927, 0.927, 0.927, 0.927, 0.927.
0.929, 0.929, 0.927, 0.922, 0.912.
0.933, 0.932, 0.929, 0.924, 0.919.
0.937, 0.935, 0.932, 0.927, 0.921.
0.936, 0.936, 0.936, 0.936, 0.936.
0.921, 0.919, 0.919, 0.921, 0.923.
0.913, 0.907, 0.902, 0.902, 0.902.
0.926, 0.928, 0.928, 0.928, 0.928.
0.927, 0.928, 0.928, 0.928, 0.928.
0.919, 0.919, 0.922, 0.926, 0.928.
0.909, 0.909, 0.909, 0.909, 0.909.
0.911, 0.913, 0.915, 0.915, 0.915.
0.926, 0.932, 0.936, 0.936, 0.936.
0.945, 0.948, 0.949, 0.949, 0.949.
0.936, 0.936, 0.936, 0.936, 0.936.
0.926, 0.921, 0.919, 0.919, 0.919.
0.909, 0.903, 0.899, 0.899, 0.9.
0.899, 0.899, 0.899, 0.899, 0.899.
0.911, 0.916, 0.921, 0.928, 0.935.
0.899, 0.899, 0.899, 0.899, 0.899.
0.903, 0.903, 0.903, 0.903, 0.903.
0.903, 0.903, 0.903, 0.903, 0.903.
0.903, 0.903, 0.903, 0.903, 0.903.
0.916, 0.923, 0.928, 0.933, 0.933.
0.922, 0.928, 0.933, 0.933, 0.929.
0.919, 0.919, 0.919, 0.919, 0.919.
0.919, 0.919, 0.919, 0.919, 0.919.
0.919, 0.919, 0.919, 0.919, 0.919.
0.916, 0.915, 0.915, 0.915, 0.915.
0.915, 0.915, 0.915, 0.915, 0.915.
0.907, 0.907, 0.907, 0.907, 0.907.
0.891, 0.884, 0.879, 0.874, 0.874.
0.884, 0.879, 0.875, 0.874, 0.874.
0.865, 0.859, 0.859, 0.859, 0.859.
0.851, 0.851, 0.851, 0.851, 0.851.
0.844, 0.845, 0.845, 0.845, 0.845.
0.822, 0.814, 0.807, 0.801, 0.801.
0.786, 0.776, 0.766, 0.761, 0.761.
0.696, 0.665, 0.657, 0.657, 0.661.
0.675, 0.665, 0.667, 0.676, 0.692.
0.687, 0.701, 0.714, 0.727, 0.735.
0.667, 0.663, 0.663, 0.667, 0.676.
0.664, 0.667, 0.676, 0.692, 0.717.
0.633, 0.632, 0.642, 0.661, 0.676.
0.644, 0.657, 0.667, 0.676, 0.686.
0.628, 0.631, 0.632, 0.632, 0.632.
0.574, 0.562, 0.563, 0.577, 0.601.
0.551, 0.546, 0.546, 0.546, 0.546.
0.446, 0.408, 0.392, 0.392, 0.399.
0.45, 0.446, 0.451, 0.465, 0.483.
0.434, 0.435, 0.443, 0.457, 0.483.
0.408, 0.399, 0.392, 0.392, 0.392.
0.392, 0.392, 0.392, 0.392, 0.392.
0.324, 0.312, 0.312, 0.312, 0.317.
0.312, 0.309, 0.309, 0.314, 0.317.
0.309, 0.309, 0.309, 0.309, 0.308.
0.324, 0.342, 0.358, 0.371, 0.371.
0.317, 0.317, 0.317, 0.317, 0.317.
0.352, 0.371, 0.382, 0.384, 0.384.
0.383, 0.402, 0.415, 0.417, 0.412.
0.423, 0.432, 0.432, 0.432, 0.432.
0.512, 0.533, 0.533, 0.533, 0.534.
0.533, 0.546, 0.549, 0.549, 0.549.
0.477, 0.452, 0.433, 0.412, 0.399.
0.462, 0.435, 0.412, 0.399, 0.4.
0.505, 0.525, 0.542, 0.551, 0.554.
0.571, 0.6, 0.625, 0.644, 0.652.
0.625, 0.661, 0.689, 0.701, 0.705.
0.702, 0.739, 0.765, 0.775, 0.766.
0.735, 0.761, 0.775, 0.775, 0.761.
0.766, 0.775, 0.766, 0.743, 0.719.
0.791, 0.796, 0.796, 0.796, 0.796.
0.815, 0.818, 0.811, 0.798, 0.778.
0.803, 0.796, 0.784, 0.762, 0.739.
0.796, 0.784, 0.766, 0.749, 0.736.
0.816, 0.818, 0.818, 0.818, 0.819.
0.784, 0.772, 0.766, 0.762, 0.762.
0.736, 0.719, 0.719, 0.726, 0.731.
0.729, 0.729, 0.731, 0.731, 0.731.
0.719, 0.723, 0.731, 0.742, 0.753.
0.772, 0.789, 0.796, 0.798, 0.796.
0.828, 0.851, 0.862, 0.862, 0.858.
0.852, 0.862, 0.862, 0.857, 0.849.
0.879, 0.882, 0.876, 0.865, 0.853.
0.882, 0.879, 0.872, 0.865, 0.862.
0.893, 0.892, 0.892, 0.896, 0.901.
0.887, 0.887, 0.889, 0.892, 0.897.
0.866, 0.862, 0.862, 0.862, 0.862.
0.851, 0.851, 0.851, 0.851, 0.851.
0.844, 0.844, 0.844, 0.844, 0.844.
0.825, 0.826, 0.828, 0.831, 0.831.
0.795, 0.792, 0.801, 0.815, 0.826.
0.801, 0.803, 0.803, 0.803, 0.803.
0.826, 0.846, 0.858, 0.862, 0.862.
0.826, 0.832, 0.832, 0.832, 0.832.
0.826, 0.826, 0.826, 0.826, 0.823.
0.823, 0.823, 0.823, 0.823, 0.823.
0.822, 0.823, 0.823, 0.823, 0.823.
0.823, 0.823, 0.823, 0.823, 0.823.
0.807, 0.803, 0.801, 0.803, 0.807.
0.788, 0.778, 0.774, 0.774, 0.778.
0.786, 0.784, 0.784, 0.787, 0.798.
0.761, 0.757, 0.764, 0.775, 0.786.
0.75, 0.756, 0.768, 0.778, 0.786.
0.738, 0.745, 0.761, 0.778, 0.789.
0.729, 0.729, 0.729, 0.729, 0.729.
0.745, 0.758, 0.769, 0.775, 0.778.
0.776, 0.796, 0.803, 0.803, 0.8.
0.775, 0.778, 0.778, 0.778, 0.778.
0.775, 0.775, 0.775, 0.775, 0.775.
0.761, 0.757, 0.757, 0.757, 0.757.
0.775, 0.775, 0.775, 0.775, 0.775.
0.757, 0.757, 0.761, 0.767, 0.775.
0.733, 0.727, 0.727, 0.733, 0.745.
0.729, 0.729, 0.731, 0.731, 0.731.
0.719, 0.719, 0.727, 0.738, 0.747.
0.721, 0.726, 0.733, 0.745, 0.757.
0.717, 0.717, 0.717, 0.717, 0.717.
0.705, 0.705, 0.707, 0.708, 0.705.
0.713, 0.713, 0.713, 0.713, 0.713.
0.727, 0.731, 0.733, 0.733, 0.733.
0.747, 0.753, 0.753, 0.753, 0.753.
0.772, 0.775, 0.775, 0.775, 0.775.
0.778, 0.772, 0.763, 0.757, 0.757.
0.77, 0.761, 0.753, 0.753, 0.757.
0.761, 0.757, 0.757, 0.761, 0.767.
0.767, 0.767, 0.767, 0.768, 0.769.
0.789, 0.798, 0.805, 0.813, 0.819.
0.789, 0.789, 0.789, 0.789, 0.789.
0.826, 0.837, 0.837, 0.837, 0.837.
0.836, 0.837, 0.837, 0.837, 0.837.
0.848, 0.852, 0.853, 0.853, 0.853.
0.867, 0.867, 0.863, 0.858, 0.853.
0.895, 0.901, 0.904, 0.905, 0.905.
0.896, 0.896, 0.896, 0.896, 0.896.
0.879, 0.867, 0.858, 0.849, 0.837.
0.87, 0.862, 0.852, 0.844, 0.837.
0.876, 0.871, 0.864, 0.862, 0.862.
0.858, 0.851, 0.844, 0.837, 0.832.
0.844, 0.838, 0.837, 0.837, 0.837.
0.853, 0.853, 0.853, 0.853, 0.853.
0.868, 0.871, 0.871, 0.871, 0.871.
0.889, 0.895, 0.898, 0.899, 0.899.
0.877, 0.872, 0.864, 0.857, 0.848.
0.863, 0.857, 0.854, 0.853, 0.853.
0.879, 0.883, 0.885, 0.885, 0.885.
0.87, 0.871, 0.871, 0.871, 0.871.
0.853, 0.849, 0.846, 0.846, 0.846.
0.812, 0.795, 0.788, 0.787, 0.791.
0.786, 0.784, 0.791, 0.803, 0.815.
0.763, 0.757, 0.757, 0.764, 0.778.
0.75, 0.756, 0.769, 0.782, 0.798.
0.763, 0.778, 0.792, 0.806, 0.818.
0.778, 0.802, 0.825, 0.841, 0.847.
0.79, 0.803, 0.815, 0.818, 0.814.
0.817, 0.833, 0.841, 0.846, 0.846.
0.826, 0.831, 0.833, 0.833, 0.833.
0.825, 0.825, 0.825, 0.825, 0.825.
0.808, 0.804, 0.801, 0.801, 0.803.
0.793, 0.789, 0.787, 0.791, 0.803.
0.789, 0.787, 0.787, 0.791, 0.803.
0.787, 0.791, 0.798, 0.806, 0.814.
0.789, 0.798, 0.806, 0.813, 0.818.
0.778, 0.778, 0.778, 0.778, 0.778.
0.778, 0.778, 0.778, 0.778, 0.778.
0.801, 0.815, 0.826, 0.831, 0.832.
0.815, 0.826, 0.832, 0.835, 0.835.
0.815, 0.818, 0.818, 0.814, 0.806.
0.82, 0.823, 0.823, 0.823, 0.823.
0.832, 0.832, 0.832, 0.832, 0.832.
0.807, 0.793, 0.778, 0.761, 0.747.
0.808, 0.801, 0.793, 0.786, 0.784.
0.832, 0.832, 0.832, 0.832, 0.832.
0.788, 0.778, 0.774, 0.774, 0.778.
0.763, 0.757, 0.757, 0.761, 0.769.
0.719, 0.699, 0.696, 0.705, 0.715.
0.745, 0.756, 0.769, 0.778, 0.786.
0.779, 0.801, 0.815, 0.821, 0.821.
0.81, 0.821, 0.827, 0.828, 0.824.
0.806, 0.807, 0.807, 0.805, 0.8.
0.83, 0.832, 0.832, 0.832, 0.832.
0.845, 0.846, 0.846, 0.846, 0.846.
0.846, 0.846, 0.846, 0.846, 0.846.
0.85, 0.851, 0.851, 0.851, 0.852.
0.845, 0.846, 0.846, 0.846, 0.846.
0.844, 0.845, 0.845, 0.845, 0.845.
0.841, 0.841, 0.841, 0.841, 0.841.
0.844, 0.845, 0.845, 0.845, 0.845.
0.845, 0.845, 0.845, 0.845, 0.845.
0.837, 0.837, 0.837, 0.837, 0.837.
0.837, 0.837, 0.837, 0.837, 0.837.
0.858, 0.861, 0.862, 0.862, 0.862.
0.846, 0.845, 0.845, 0.845, 0.845.
0.849, 0.849, 0.849, 0.849, 0.849.
0.861, 0.862, 0.862, 0.862, 0.862.
0.85, 0.848, 0.844, 0.837, 0.832.
0.853, 0.853, 0.853, 0.853, 0.853.
0.843, 0.837, 0.837, 0.837, 0.837.
0.833, 0.832, 0.832, 0.832, 0.832.
0.796, 0.791, 0.791, 0.796, 0.801.
0.782, 0.784, 0.791, 0.798, 0.803.
0.732, 0.719, 0.714, 0.714, 0.717.
0.729, 0.731, 0.745, 0.761, 0.776.
0.764, 0.776, 0.787, 0.798, 0.803.
0.789, 0.798, 0.801, 0.801, 0.8.
0.826, 0.839, 0.845, 0.846, 0.846.
0.833, 0.842, 0.845, 0.845, 0.845.
0.858, 0.863, 0.864, 0.864, 0.864.
0.867, 0.871, 0.871, 0.871, 0.871.
0.852, 0.849, 0.849, 0.849, 0.849.
0.837, 0.837, 0.837, 0.837, 0.837.
0.796, 0.788, 0.791, 0.798, 0.809.
0.801, 0.803, 0.809, 0.817, 0.825.
0.817, 0.826, 0.835, 0.842, 0.847.
0.809, 0.809, 0.809, 0.809, 0.808.
0.803, 0.803, 0.803, 0.803, 0.803.
0.817, 0.821, 0.823, 0.823, 0.821.
0.821, 0.823, 0.823, 0.823, 0.823.
0.808, 0.803, 0.799, 0.799, 0.799.
0.803, 0.799, 0.799, 0.799, 0.799.
0.803, 0.803, 0.803, 0.801, 0.8.
0.796, 0.796, 0.796, 0.796, 0.796.
0.799, 0.799, 0.801, 0.803, 0.803.
0.803, 0.803, 0.803, 0.803, 0.803.
0.799, 0.801, 0.803, 0.803, 0.803.
0.779, 0.774, 0.772, 0.772, 0.772.
0.772, 0.772, 0.774, 0.774, 0.774.
0.756, 0.756, 0.757, 0.757, 0.757.
0.784, 0.796, 0.801, 0.803, 0.803.
0.828, 0.846, 0.855, 0.855, 0.852.
0.846, 0.853, 0.853, 0.853, 0.853.
0.858, 0.857, 0.853, 0.853, 0.853.
0.858, 0.858, 0.858, 0.858, 0.858.
0.853, 0.853, 0.853, 0.853, 0.853.
0.823, 0.813, 0.807, 0.807, 0.807.
0.826, 0.826, 0.826, 0.826, 0.828.
0.821, 0.823, 0.823, 0.823, 0.823.
0.809, 0.807, 0.807, 0.807, 0.807.
0.821, 0.823, 0.823, 0.823, 0.823.
0.83, 0.832, 0.832, 0.832, 0.832.
0.831, 0.832, 0.832, 0.832, 0.832.
0.842, 0.846, 0.846, 0.846, 0.846.
0.838, 0.835, 0.832, 0.832, 0.832.
0.845, 0.846, 0.846, 0.846, 0.846.
0.863, 0.863, 0.862, 0.862, 0.862.
0.867, 0.863, 0.858, 0.853, 0.853.
0.875, 0.875, 0.871, 0.864, 0.857.
0.885, 0.885, 0.885, 0.885, 0.885.
0.87, 0.868, 0.867, 0.867, 0.867.
0.861, 0.858, 0.858, 0.859, 0.859.
0.871, 0.872, 0.872, 0.872, 0.872.
0.869, 0.869, 0.869, 0.869, 0.867.
0.869, 0.869, 0.869, 0.867, 0.863.
0.872, 0.875, 0.875, 0.871, 0.864.
0.869, 0.869, 0.867, 0.863, 0.862.
0.869, 0.867, 0.863, 0.862, 0.862.
0.856, 0.853, 0.853, 0.853, 0.853.
0.857, 0.853, 0.853, 0.853, 0.853.
0.855, 0.853, 0.853, 0.853, 0.853.
0.853, 0.853, 0.853, 0.853, 0.853.
0.858, 0.858, 0.858, 0.858, 0.858.
0.853, 0.853, 0.853, 0.853, 0.853.
0.854, 0.853, 0.853, 0.853, 0.853.
0.853, 0.853, 0.853, 0.853, 0.853.
0.869, 0.869, 0.868, 0.868, 0.868.
0.888, 0.891, 0.894, 0.894, 0.894.
0.885, 0.885, 0.885, 0.885, 0.885.
0.881, 0.883, 0.885, 0.885, 0.885.
0.885, 0.885, 0.885, 0.885, 0.885.
0.912, 0.917, 0.918, 0.918, 0.918.
0.913, 0.914, 0.914, 0.914, 0.914.
0.927, 0.929, 0.929, 0.929, 0.929.
0.893, 0.885, 0.881, 0.881, 0.881.
0.864, 0.857, 0.857, 0.859, 0.859.
0.863, 0.864, 0.867, 0.869, 0.869.
0.863, 0.867, 0.869, 0.869, 0.869.
0.866, 0.867, 0.867, 0.867, 0.867.
0.877, 0.882, 0.885, 0.885, 0.885.
0.866, 0.867, 0.867, 0.867, 0.867.
0.846, 0.846, 0.846, 0.846, 0.846.
0.837, 0.837, 0.837, 0.837, 0.837.
0.825, 0.825, 0.825, 0.825, 0.825.
0.817, 0.817, 0.817, 0.817, 0.817.
0.817, 0.817, 0.817, 0.817, 0.817.
0.863, 0.879, 0.885, 0.885, 0.885.
0.881, 0.892, 0.897, 0.897, 0.897.
0.869, 0.867, 0.867, 0.867, 0.867.
0.879, 0.882, 0.885, 0.885, 0.885.
0.87, 0.868, 0.867, 0.867, 0.867.
0.853, 0.853, 0.858, 0.863, 0.867.
0.756, 0.713, 0.693, 0.698, 0.717.
0.761, 0.763, 0.771, 0.782, 0.796.
0.763, 0.773, 0.784, 0.792, 0.798.
0.729, 0.729, 0.731, 0.731, 0.731.
0.729, 0.729, 0.729, 0.729, 0.729.
0.776, 0.792, 0.803, 0.808, 0.809.
0.817, 0.841, 0.857, 0.863, 0.863.
0.813, 0.817, 0.818, 0.818, 0.817.
0.826, 0.831, 0.831, 0.831, 0.831.
0.837, 0.837, 0.837, 0.837, 0.837.
0.863, 0.863, 0.862, 0.862, 0.862.
0.899, 0.903, 0.903, 0.903, 0.903.
0.905, 0.903, 0.902, 0.902, 0.902.
0.895, 0.893, 0.892, 0.892, 0.892.
0.876, 0.865, 0.858, 0.858, 0.859.
0.88, 0.876, 0.872, 0.869, 0.868.
0.872, 0.869, 0.868, 0.868, 0.868.
0.868, 0.869, 0.869, 0.867, 0.862.
0.869, 0.868, 0.868, 0.867, 0.862.
0.889, 0.895, 0.897, 0.897, 0.897.
0.897, 0.898, 0.897, 0.897, 0.897.
0.902, 0.902, 0.897, 0.892, 0.889.
0.899, 0.897, 0.896, 0.896, 0.896.
0.899, 0.896, 0.896, 0.897, 0.897.
0.897, 0.894, 0.892, 0.892, 0.894.
0.892, 0.892, 0.892, 0.894, 0.897.
0.882, 0.879, 0.879, 0.882, 0.886.
0.853, 0.846, 0.846, 0.846, 0.846.
0.849, 0.846, 0.846, 0.846, 0.846.
0.851, 0.851, 0.851, 0.851, 0.853.
0.844, 0.846, 0.846, 0.846, 0.846.
0.817, 0.811, 0.815, 0.825, 0.833.
0.837, 0.846, 0.855, 0.862, 0.869.
0.871, 0.882, 0.885, 0.885, 0.885.
0.898, 0.906, 0.909, 0.909, 0.909.
0.898, 0.896, 0.892, 0.887, 0.882.
0.909, 0.909, 0.909, 0.909, 0.909.
0.909, 0.909, 0.909, 0.909, 0.909.
0.901, 0.897, 0.894, 0.892, 0.892.
0.893, 0.892, 0.892, 0.892, 0.894.
0.887, 0.885, 0.885, 0.885, 0.886.
0.877, 0.875, 0.875, 0.875, 0.875.
0.877, 0.879, 0.882, 0.886, 0.887.
0.907, 0.915, 0.918, 0.918, 0.918.
0.901, 0.902, 0.902, 0.902, 0.9.
0.896, 0.896, 0.896, 0.896, 0.896.
0.896, 0.896, 0.896, 0.896, 0.896.
0.887, 0.882, 0.875, 0.869, 0.863.
0.882, 0.875, 0.869, 0.865, 0.865.
0.853, 0.837, 0.823, 0.812, 0.803.
0.85, 0.849, 0.849, 0.849, 0.849.
0.849, 0.849, 0.849, 0.849, 0.849.
0.862, 0.869, 0.875, 0.882, 0.889.
0.876, 0.882, 0.885, 0.885, 0.885.
0.882, 0.889, 0.895, 0.898, 0.898.
0.877, 0.882, 0.885, 0.885, 0.885.
0.889, 0.894, 0.896, 0.898, 0.898.
0.898, 0.903, 0.906, 0.907, 0.907.
0.902, 0.906, 0.907, 0.907, 0.907.
0.906, 0.907, 0.907, 0.907, 0.907.
0.889, 0.881, 0.873, 0.867, 0.863.
0.87, 0.862, 0.858, 0.859, 0.859.
0.851, 0.846, 0.846, 0.846, 0.846.
0.858, 0.861, 0.867, 0.875, 0.882.
0.837, 0.837, 0.842, 0.846, 0.847.
0.825, 0.825, 0.825, 0.825, 0.825.
0.82, 0.823, 0.825, 0.825, 0.825.
0.813, 0.808, 0.803, 0.799, 0.799.
0.808, 0.803, 0.799, 0.799, 0.799.
0.801, 0.799, 0.799, 0.799, 0.801.
0.776, 0.763, 0.757, 0.757, 0.757.
0.763, 0.757, 0.757, 0.757, 0.757.
0.776, 0.778, 0.778, 0.778, 0.778.
0.774, 0.778, 0.778, 0.778, 0.778.
0.776, 0.778, 0.778, 0.778, 0.778.
0.763, 0.761, 0.761, 0.761, 0.761.
0.747, 0.745, 0.745, 0.745, 0.747.
0.745, 0.745, 0.745, 0.745, 0.747.
0.718, 0.712, 0.712, 0.718, 0.729.
0.757, 0.776, 0.789, 0.798, 0.803.
0.784, 0.798, 0.803, 0.803, 0.8.
0.76, 0.761, 0.761, 0.761, 0.761.
0.763, 0.761, 0.761, 0.761, 0.761.
0.761, 0.761, 0.761, 0.761, 0.761.
0.761, 0.761, 0.761, 0.761, 0.761.
0.767, 0.764, 0.761, 0.761, 0.761.
0.789, 0.798, 0.801, 0.802, 0.8.
0.791, 0.795, 0.798, 0.799, 0.799.
0.803, 0.805, 0.805, 0.805, 0.805.
0.817, 0.818, 0.818, 0.818, 0.818.
0.83, 0.832, 0.832, 0.832, 0.832.
0.831, 0.832, 0.832, 0.832, 0.832.
0.832, 0.832, 0.832, 0.832, 0.832.
0.835, 0.833, 0.832, 0.832, 0.832.
0.833, 0.832, 0.832, 0.832, 0.832.
0.831, 0.832, 0.832, 0.832, 0.832.
0.826, 0.826, 0.823, 0.821, 0.821.
0.823, 0.823, 0.823, 0.823, 0.823.
0.808, 0.801, 0.799, 0.801, 0.803.
0.761, 0.747, 0.742, 0.742, 0.747.
0.696, 0.676, 0.667, 0.664, 0.667.
0.686, 0.676, 0.669, 0.667, 0.667.
0.71, 0.727, 0.747, 0.767, 0.778.
0.717, 0.733, 0.747, 0.761, 0.775.
0.739, 0.756, 0.769, 0.775, 0.778.
0.763, 0.775, 0.786, 0.798, 0.803.
0.789, 0.801, 0.803, 0.803, 0.803.
0.775, 0.775, 0.775, 0.775, 0.775.
0.764, 0.761, 0.761, 0.761, 0.761.
0.769, 0.775, 0.784, 0.791, 0.798.
0.761, 0.767, 0.775, 0.786, 0.798.
0.81, 0.832, 0.847, 0.859, 0.867.
0.835, 0.845, 0.849, 0.849, 0.849.
0.828, 0.831, 0.832, 0.832, 0.832.
0.832, 0.832, 0.832, 0.832, 0.832.
0.835, 0.832, 0.832, 0.832, 0.832.
0.843, 0.845, 0.846, 0.846, 0.846.
0.849, 0.849, 0.849, 0.849, 0.849.
0.861, 0.862, 0.862, 0.862, 0.862.
0.862, 0.862, 0.862, 0.862, 0.862.
0.853, 0.851, 0.849, 0.844, 0.837.
0.849, 0.844, 0.837, 0.832, 0.832.
0.843, 0.837, 0.832, 0.832, 0.837.
0.837, 0.832, 0.824, 0.818, 0.817.
