0.801, 0.794, 0.787, 0.787, 0.787.
0.803, 0.805, 0.806, 0.806, 0.805.
0.793, 0.793, 0.793, 0.793, 0.793.
0.794, 0.798, 0.804, 0.809, 0.811.
0.792, 0.793, 0.798, 0.808, 0.822.
0.808, 0.814, 0.817, 0.817, 0.817.
0.824, 0.829, 0.829, 0.829, 0.829.
0.829, 0.835, 0.838, 0.838, 0.838.
0.836, 0.838, 0.838, 0.838, 0.838.
0.86, 0.864, 0.864, 0.864, 0.864.
0.886, 0.893, 0.896, 0.896, 0.893.
0.878, 0.878, 0.878, 0.878, 0.878.
0.871, 0.871, 0.871, 0.871, 0.871.
0.867, 0.863, 0.861, 0.861, 0.861.
0.863, 0.861, 0.861, 0.861, 0.861.
0.886, 0.893, 0.897, 0.897, 0.893.
0.902, 0.905, 0.905, 0.905, 0.905.
0.905, 0.905, 0.905, 0.905, 0.905.
0.883, 0.875, 0.871, 0.871, 0.871.
0.887, 0.887, 0.887, 0.887, 0.887.
0.867, 0.861, 0.861, 0.861, 0.861.
0.834, 0.829, 0.829, 0.829, 0.829.
0.861, 0.862, 0.862, 0.862, 0.862.
0.878, 0.881, 0.881, 0.881, 0.881.
0.887, 0.887, 0.887, 0.887, 0.887.
0.882, 0.882, 0.882, 0.882, 0.882.
0.887, 0.887, 0.887, 0.887, 0.887.
0.887, 0.887, 0.887, 0.887, 0.887.
0.887, 0.887, 0.887, 0.887, 0.887.
0.878, 0.878, 0.878, 0.878, 0.878.
0.877, 0.878, 0.878, 0.878, 0.878.
0.877, 0.878, 0.878, 0.878, 0.878.
0.877, 0.878, 0.878, 0.878, 0.878.
0.876, 0.876, 0.876, 0.876, 0.876.
0.839, 0.832, 0.829, 0.829, 0.829.
0.851, 0.851, 0.851, 0.851, 0.851.
0.871, 0.878, 0.881, 0.881, 0.881.
0.881, 0.887, 0.889, 0.889, 0.889.
0.877, 0.878, 0.878, 0.878, 0.878.
0.871, 0.871, 0.871, 0.871, 0.871.
0.887, 0.887, 0.887, 0.887, 0.887.
0.898, 0.902, 0.905, 0.905, 0.905.
0.902, 0.905, 0.905, 0.902, 0.898.
0.905, 0.905, 0.905, 0.905, 0.902.
0.902, 0.899, 0.899, 0.899, 0.899.
0.912, 0.912, 0.912, 0.912, 0.912.
0.909, 0.909, 0.909, 0.909, 0.909.
0.899, 0.899, 0.899, 0.899, 0.899.
0.883, 0.883, 0.887, 0.887, 0.887.
0.881, 0.881, 0.881, 0.881, 0.881.
0.878, 0.878, 0.878, 0.878, 0.878.
0.863, 0.857, 0.857, 0.857, 0.857.
0.868, 0.863, 0.861, 0.861, 0.861.
0.885, 0.889, 0.889, 0.889, 0.889.
0.882, 0.881, 0.881, 0.881, 0.881.
0.889, 0.889, 0.889, 0.889, 0.889.
0.887, 0.887, 0.887, 0.887, 0.887.
0.887, 0.887, 0.887, 0.887, 0.887.
0.877, 0.878, 0.878, 0.878, 0.878.
0.878, 0.876, 0.876, 0.876, 0.876.
0.88, 0.878, 0.876, 0.876, 0.876.
0.88, 0.876, 0.876, 0.876, 0.876.
0.877, 0.876, 0.876, 0.876, 0.876.
0.869, 0.867, 0.867, 0.867, 0.867.
0.846, 0.842, 0.842, 0.842, 0.842.
0.829, 0.829, 0.829, 0.829, 0.829.
0.831, 0.829, 0.829, 0.829, 0.829.
0.85, 0.857, 0.857, 0.857, 0.857.
0.857, 0.861, 0.861, 0.861, 0.861.
0.845, 0.842, 0.842, 0.842, 0.842.
0.851, 0.851, 0.851, 0.851, 0.851.
0.868, 0.871, 0.871, 0.871, 0.871.
0.906, 0.908, 0.909, 0.909, 0.909.
0.881, 0.878, 0.878, 0.878, 0.878.
0.882, 0.885, 0.887, 0.887, 0.887.
0.885, 0.885, 0.885, 0.885, 0.885.
0.896, 0.902, 0.905, 0.902, 0.898.
0.907, 0.909, 0.909, 0.909, 0.909.
0.912, 0.912, 0.912, 0.912, 0.912.
0.902, 0.899, 0.899, 0.899, 0.899.
0.899, 0.899, 0.899, 0.899, 0.899.
0.885, 0.885, 0.885, 0.885, 0.885.
0.829, 0.822, 0.821, 0.821, 0.821.
0.791, 0.783, 0.781, 0.781, 0.781.
0.783, 0.781, 0.781, 0.781, 0.781.
0.781, 0.781, 0.781, 0.781, 0.781.
0.798, 0.804, 0.809, 0.811, 0.811.
0.811, 0.817, 0.821, 0.822, 0.822.
0.805, 0.807, 0.807, 0.807, 0.807.
0.811, 0.811, 0.811, 0.811, 0.811.
0.781, 0.772, 0.769, 0.769, 0.769.
0.748, 0.739, 0.739, 0.741, 0.742.
0.742, 0.742, 0.742, 0.742, 0.742.
0.733, 0.732, 0.732, 0.732, 0.732.
0.711, 0.705, 0.705, 0.705, 0.705.
0.632, 0.624, 0.624, 0.632, 0.644.
0.664, 0.688, 0.711, 0.732, 0.751.
0.775, 0.811, 0.837, 0.852, 0.857.
0.753, 0.757, 0.763, 0.763, 0.763.
0.81, 0.827, 0.837, 0.838, 0.838.
0.861, 0.875, 0.883, 0.883, 0.876.
0.878, 0.881, 0.876, 0.867, 0.859.
0.849, 0.839, 0.829, 0.816, 0.797.
0.783, 0.767, 0.763, 0.763, 0.763.
0.783, 0.775, 0.775, 0.775, 0.775.
0.772, 0.767, 0.763, 0.763, 0.763.
0.776, 0.781, 0.787, 0.794, 0.798.
0.798, 0.808, 0.817, 0.822, 0.827.
0.808, 0.817, 0.822, 0.827, 0.827.
0.828, 0.835, 0.836, 0.835, 0.835.
0.843, 0.843, 0.839, 0.833, 0.826.
0.843, 0.839, 0.833, 0.826, 0.816.
0.863, 0.864, 0.864, 0.864, 0.864.
0.872, 0.872, 0.869, 0.864, 0.861.
0.872, 0.872, 0.872, 0.872, 0.872.
0.864, 0.861, 0.861, 0.861, 0.861.
0.862, 0.861, 0.861, 0.861, 0.861.
0.862, 0.862, 0.862, 0.862, 0.862.
0.861, 0.861, 0.861, 0.861, 0.861.
0.864, 0.864, 0.864, 0.864, 0.864.
0.861, 0.861, 0.861, 0.861, 0.861.
0.864, 0.864, 0.864, 0.864, 0.864.
0.878, 0.879, 0.879, 0.879, 0.879.
0.878, 0.878, 0.878, 0.878, 0.878.
0.878, 0.878, 0.878, 0.878, 0.878.
0.896, 0.898, 0.898, 0.898, 0.898.
0.894, 0.892, 0.892, 0.892, 0.892.
0.881, 0.881, 0.882, 0.882, 0.882.
0.877, 0.878, 0.878, 0.878, 0.878.
0.881, 0.882, 0.882, 0.882, 0.882.
0.877, 0.878, 0.878, 0.878, 0.878.
0.867, 0.863, 0.863, 0.863, 0.863.
0.868, 0.868, 0.868, 0.868, 0.868.
0.863, 0.863, 0.863, 0.863, 0.863.
0.869, 0.871, 0.871, 0.871, 0.871.
0.872, 0.876, 0.878, 0.878, 0.878.
0.877, 0.878, 0.878, 0.878, 0.878.
0.867, 0.863, 0.861, 0.861, 0.861.
0.835, 0.829, 0.829, 0.829, 0.829.
0.826, 0.822, 0.822, 0.822, 0.823.
0.829, 0.829, 0.829, 0.829, 0.829.
0.829, 0.829, 0.829, 0.829, 0.829.
0.84, 0.842, 0.842, 0.842, 0.842.
0.863, 0.871, 0.878, 0.881, 0.881.
0.872, 0.878, 0.879, 0.879, 0.879.
0.868, 0.868, 0.868, 0.868, 0.868.
0.872, 0.871, 0.871, 0.871, 0.871.
0.871, 0.871, 0.871, 0.871, 0.871.
0.872, 0.872, 0.871, 0.871, 0.871.
0.887, 0.887, 0.887, 0.887, 0.887.
0.892, 0.892, 0.892, 0.892, 0.892.
0.885, 0.885, 0.885, 0.885, 0.885.
0.887, 0.887, 0.887, 0.887, 0.887.
0.878, 0.878, 0.878, 0.878, 0.878.
0.872, 0.871, 0.871, 0.871, 0.871.
0.878, 0.878, 0.878, 0.878, 0.878.
0.878, 0.878, 0.878, 0.878, 0.878.
0.871, 0.871, 0.871, 0.871, 0.871.
0.877, 0.878, 0.878, 0.878, 0.878.
0.877, 0.878, 0.878, 0.878, 0.878.
0.878, 0.878, 0.878, 0.878, 0.878.
0.885, 0.885, 0.885, 0.885, 0.885.
0.902, 0.908, 0.909, 0.909, 0.909.
0.889, 0.889, 0.889, 0.889, 0.889.
0.881, 0.881, 0.881, 0.881, 0.881.
0.871, 0.871, 0.871, 0.871, 0.871.
0.857, 0.855, 0.855, 0.855, 0.855.
0.846, 0.846, 0.846, 0.846, 0.846.
0.816, 0.811, 0.811, 0.811, 0.811.
0.801, 0.799, 0.801, 0.801, 0.801.
0.781, 0.781, 0.781, 0.781, 0.781.
0.748, 0.742, 0.742, 0.742, 0.742.
0.724, 0.711, 0.701, 0.699, 0.701.
0.724, 0.722, 0.722, 0.722, 0.722.
0.756, 0.763, 0.763, 0.763, 0.763.
0.742, 0.742, 0.742, 0.742, 0.742.
0.781, 0.801, 0.809, 0.809, 0.809.
0.794, 0.802, 0.804, 0.804, 0.805.
0.792, 0.796, 0.802, 0.809, 0.812.
0.792, 0.796, 0.802, 0.809, 0.812.
0.781, 0.783, 0.787, 0.787, 0.787.
0.767, 0.763, 0.763, 0.763, 0.763.
0.819, 0.827, 0.827, 0.826, 0.826.
0.839, 0.847, 0.849, 0.849, 0.849.
0.851, 0.853, 0.853, 0.853, 0.851.
0.853, 0.853, 0.853, 0.853, 0.851.
0.842, 0.838, 0.835, 0.835, 0.835.
0.821, 0.811, 0.801, 0.796, 0.793.
0.835, 0.835, 0.835, 0.835, 0.835.
0.849, 0.851, 0.853, 0.853, 0.853.
0.838, 0.835, 0.835, 0.835, 0.835.
0.849, 0.849, 0.846, 0.842, 0.838.
0.829, 0.819, 0.811, 0.801, 0.796.
0.821, 0.815, 0.809, 0.801, 0.797.
0.787, 0.781, 0.781, 0.781, 0.781.
0.824, 0.835, 0.842, 0.847, 0.851.
0.845, 0.849, 0.849, 0.849, 0.849.
0.872, 0.879, 0.881, 0.881, 0.881.
0.881, 0.883, 0.883, 0.883, 0.883.
0.846, 0.839, 0.839, 0.839, 0.839.
0.829, 0.829, 0.829, 0.829, 0.829.
0.819, 0.819, 0.819, 0.819, 0.819.
0.776, 0.767, 0.763, 0.763, 0.763.
0.702, 0.695, 0.699, 0.701, 0.706.
0.705, 0.705, 0.709, 0.717, 0.732.
0.745, 0.769, 0.788, 0.801, 0.801.
0.81, 0.827, 0.835, 0.839, 0.839.
0.819, 0.825, 0.826, 0.826, 0.826.
0.819, 0.819, 0.819, 0.819, 0.819.
0.849, 0.851, 0.853, 0.853, 0.853.
0.838, 0.838, 0.838, 0.838, 0.838.
0.802, 0.797, 0.802, 0.804, 0.8.
0.767, 0.755, 0.755, 0.755, 0.755.
0.739, 0.733, 0.732, 0.732, 0.732.
0.664, 0.647, 0.638, 0.634, 0.634.
0.608, 0.587, 0.579, 0.578, 0.598.
0.619, 0.619, 0.619, 0.619, 0.622.
0.564, 0.559, 0.565, 0.578, 0.598.
0.611, 0.638, 0.669, 0.688, 0.701.
0.619, 0.639, 0.664, 0.688, 0.701.
0.574, 0.567, 0.565, 0.565, 0.565.
0.651, 0.678, 0.694, 0.701, 0.7.
0.766, 0.788, 0.794, 0.794, 0.794.
0.786, 0.801, 0.801, 0.796, 0.796.
0.747, 0.733, 0.722, 0.717, 0.717.
0.767, 0.763, 0.763, 0.763, 0.763.
0.763, 0.763, 0.763, 0.763, 0.763.
0.789, 0.801, 0.809, 0.817, 0.822.
0.798, 0.808, 0.817, 0.822, 0.823.
0.812, 0.817, 0.817, 0.814, 0.809.
0.849, 0.857, 0.859, 0.859, 0.859.
0.894, 0.902, 0.904, 0.901, 0.897.
0.902, 0.902, 0.899, 0.899, 0.899.
0.914, 0.914, 0.914, 0.914, 0.914.
0.916, 0.916, 0.916, 0.916, 0.914.
0.904, 0.898, 0.894, 0.887, 0.876.
0.832, 0.803, 0.783, 0.772, 0.763.
0.804, 0.784, 0.763, 0.748, 0.742.
0.702, 0.675, 0.664, 0.657, 0.657.
0.596, 0.561, 0.554, 0.565, 0.597.
0.611, 0.599, 0.597, 0.597, 0.597.
0.595, 0.592, 0.594, 0.598, 0.622.
0.664, 0.694, 0.722, 0.742, 0.755.
0.756, 0.795, 0.819, 0.825, 0.825.
0.775, 0.788, 0.795, 0.796, 0.796.
0.795, 0.812, 0.822, 0.825, 0.825.
0.84, 0.852, 0.857, 0.857, 0.857.
0.873, 0.883, 0.886, 0.887, 0.887.
0.91, 0.916, 0.916, 0.916, 0.916.
0.927, 0.928, 0.928, 0.928, 0.928.
0.943, 0.945, 0.945, 0.945, 0.945.
0.938, 0.938, 0.938, 0.938, 0.938.
0.938, 0.939, 0.939, 0.939, 0.939.
0.938, 0.939, 0.939, 0.939, 0.939.
0.937, 0.938, 0.938, 0.938, 0.938.
0.932, 0.932, 0.932, 0.932, 0.932.
0.932, 0.932, 0.932, 0.932, 0.932.
0.926, 0.926, 0.926, 0.926, 0.926.
0.922, 0.918, 0.914, 0.914, 0.914.
0.927, 0.926, 0.926, 0.926, 0.926.
0.926, 0.926, 0.926, 0.926, 0.926.
0.918, 0.914, 0.914, 0.914, 0.914.
0.908, 0.901, 0.897, 0.899, 0.904.
0.906, 0.901, 0.899, 0.899, 0.899.
0.901, 0.899, 0.899, 0.899, 0.899.
0.892, 0.892, 0.892, 0.892, 0.892.
0.897, 0.901, 0.909, 0.916, 0.919.
0.904, 0.909, 0.914, 0.914, 0.914.
0.914, 0.914, 0.914, 0.914, 0.914.
0.926, 0.928, 0.928, 0.928, 0.928.
0.922, 0.923, 0.923, 0.923, 0.923.
0.921, 0.922, 0.923, 0.923, 0.923.
0.922, 0.923, 0.923, 0.923, 0.923.
0.922, 0.923, 0.923, 0.923, 0.923.
0.921, 0.922, 0.923, 0.923, 0.923.
0.906, 0.901, 0.897, 0.894, 0.892.
0.909, 0.909, 0.909, 0.909, 0.909.
0.909, 0.909, 0.909, 0.909, 0.909.
0.897, 0.895, 0.895, 0.895, 0.895.
0.895, 0.895, 0.895, 0.895, 0.895.
0.892, 0.892, 0.892, 0.892, 0.892.
0.895, 0.895, 0.895, 0.895, 0.895.
0.902, 0.905, 0.909, 0.913, 0.914.
0.905, 0.905, 0.905, 0.905, 0.905.
0.911, 0.913, 0.914, 0.914, 0.914.
0.905, 0.9, 0.897, 0.897, 0.897.
0.898, 0.897, 0.897, 0.897, 0.897.
0.87, 0.867, 0.867, 0.867, 0.867.
0.867, 0.867, 0.867, 0.867, 0.867.
0.882, 0.887, 0.893, 0.897, 0.9.
0.91, 0.921, 0.928, 0.931, 0.932.
0.897, 0.897, 0.897, 0.897, 0.897.
0.897, 0.897, 0.897, 0.897, 0.897.
0.914, 0.916, 0.916, 0.916, 0.916.
0.914, 0.914, 0.914, 0.914, 0.914.
0.914, 0.914, 0.914, 0.914, 0.914.
0.901, 0.897, 0.897, 0.897, 0.897.
0.893, 0.893, 0.893, 0.893, 0.893.
0.866, 0.855, 0.852, 0.852, 0.852.
0.867, 0.867, 0.867, 0.867, 0.867.
0.844, 0.842, 0.842, 0.842, 0.842.
0.801, 0.799, 0.798, 0.798, 0.798.
0.772, 0.763, 0.763, 0.763, 0.763.
0.767, 0.763, 0.763, 0.763, 0.763.
0.757, 0.757, 0.763, 0.763, 0.763.
0.753, 0.757, 0.763, 0.763, 0.763.
0.732, 0.732, 0.732, 0.732, 0.732.
0.732, 0.732, 0.732, 0.732, 0.732.
0.707, 0.699, 0.699, 0.701, 0.705.
0.695, 0.698, 0.701, 0.701, 0.705.
0.647, 0.639, 0.639, 0.652, 0.678.
0.652, 0.657, 0.664, 0.678, 0.698.
0.674, 0.688, 0.701, 0.709, 0.717.
0.667, 0.678, 0.688, 0.698, 0.708.
0.674, 0.688, 0.701, 0.709, 0.717.
0.657, 0.657, 0.657, 0.657, 0.657.
0.678, 0.688, 0.695, 0.701, 0.705.
0.639, 0.638, 0.638, 0.638, 0.638.
0.667, 0.678, 0.688, 0.695, 0.701.
0.653, 0.653, 0.653, 0.653, 0.653.
0.632, 0.629, 0.629, 0.629, 0.629.
0.584, 0.578, 0.578, 0.578, 0.578.
0.524, 0.5, 0.491, 0.491, 0.5.
0.523, 0.523, 0.526, 0.531, 0.542.
0.552, 0.577, 0.598, 0.622, 0.638.
0.577, 0.598, 0.622, 0.641, 0.653.
0.598, 0.622, 0.641, 0.653, 0.657.
0.618, 0.619, 0.619, 0.619, 0.619.
0.629, 0.629, 0.629, 0.629, 0.629.
0.629, 0.629, 0.629, 0.629, 0.629.
0.653, 0.657, 0.657, 0.657, 0.657.
0.673, 0.678, 0.678, 0.678, 0.678.
0.619, 0.601, 0.594, 0.592, 0.597.
0.601, 0.594, 0.598, 0.601, 0.605.
0.602, 0.605, 0.605, 0.605, 0.605.
0.615, 0.619, 0.619, 0.619, 0.619.
0.539, 0.519, 0.519, 0.53, 0.538.
0.509, 0.491, 0.479, 0.472, 0.472.
0.578, 0.594, 0.606, 0.617, 0.619.
0.653, 0.678, 0.694, 0.701, 0.7.
0.72, 0.742, 0.753, 0.753, 0.749.
0.801, 0.837, 0.855, 0.862, 0.859.
0.837, 0.843, 0.843, 0.843, 0.843.
0.857, 0.859, 0.859, 0.859, 0.859.
0.859, 0.849, 0.837, 0.822, 0.804.
0.835, 0.821, 0.801, 0.781, 0.763.
0.838, 0.829, 0.815, 0.801, 0.787.
0.845, 0.842, 0.838, 0.835, 0.835.
0.85, 0.852, 0.853, 0.853, 0.853.
0.839, 0.835, 0.835, 0.836, 0.836.
0.826, 0.815, 0.801, 0.787, 0.781.
0.835, 0.835, 0.835, 0.835, 0.835.
0.823, 0.814, 0.801, 0.787, 0.781.
0.822, 0.814, 0.801, 0.787, 0.781.
0.787, 0.776, 0.771, 0.763, 0.759.
0.827, 0.829, 0.829, 0.829, 0.829.
0.858, 0.859, 0.859, 0.859, 0.859.
0.873, 0.875, 0.875, 0.875, 0.875.
0.859, 0.854, 0.853, 0.853, 0.853.
0.835, 0.829, 0.829, 0.829, 0.829.
0.804, 0.787, 0.781, 0.778, 0.778.
0.801, 0.794, 0.792, 0.793, 0.798.
0.798, 0.798, 0.798, 0.798, 0.798.
0.787, 0.787, 0.787, 0.787, 0.787.
0.787, 0.787, 0.787, 0.787, 0.787.
0.817, 0.824, 0.826, 0.826, 0.826.
0.886, 0.896, 0.899, 0.899, 0.899.
0.902, 0.903, 0.899, 0.899, 0.899.
0.899, 0.901, 0.901, 0.899, 0.899.
0.881, 0.875, 0.875, 0.875, 0.875.
0.875, 0.871, 0.871, 0.871, 0.871.
0.872, 0.871, 0.871, 0.871, 0.871.
0.86, 0.852, 0.845, 0.839, 0.835.
0.871, 0.871, 0.871, 0.871, 0.871.
0.864, 0.861, 0.861, 0.861, 0.861.
0.864, 0.864, 0.864, 0.864, 0.864.
0.855, 0.853, 0.853, 0.853, 0.853.
0.857, 0.857, 0.857, 0.857, 0.857.
0.832, 0.829, 0.829, 0.829, 0.829.
0.791, 0.783, 0.781, 0.781, 0.781.
0.815, 0.824, 0.829, 0.829, 0.829.
0.816, 0.817, 0.817, 0.817, 0.817.
0.711, 0.676, 0.667, 0.667, 0.674.
0.793, 0.808, 0.817, 0.822, 0.824.
0.808, 0.817, 0.821, 0.822, 0.822.
0.863, 0.871, 0.873, 0.873, 0.873.
0.894, 0.902, 0.905, 0.905, 0.905.
0.911, 0.912, 0.912, 0.912, 0.912.
0.927, 0.928, 0.928, 0.928, 0.928.
0.908, 0.901, 0.898, 0.899, 0.899.
0.902, 0.899, 0.899, 0.899, 0.899.
0.899, 0.899, 0.899, 0.899, 0.899.
0.897, 0.899, 0.902, 0.904, 0.904.
0.899, 0.902, 0.904, 0.904, 0.905.
0.899, 0.899, 0.899, 0.899, 0.899.
0.907, 0.906, 0.902, 0.899, 0.899.
0.904, 0.904, 0.904, 0.905, 0.905.
0.899, 0.899, 0.899, 0.899, 0.899.
0.897, 0.897, 0.897, 0.897, 0.897.
0.88, 0.875, 0.871, 0.868, 0.863.
0.902, 0.904, 0.904, 0.904, 0.904.
0.912, 0.912, 0.912, 0.912, 0.912.
0.922, 0.923, 0.923, 0.922, 0.922.
0.922, 0.922, 0.922, 0.923, 0.923.
0.919, 0.919, 0.919, 0.919, 0.919.
0.914, 0.914, 0.914, 0.914, 0.914.
0.914, 0.914, 0.914, 0.914, 0.914.
0.897, 0.897, 0.897, 0.897, 0.898.
0.873, 0.871, 0.871, 0.871, 0.871.
0.867, 0.867, 0.867, 0.867, 0.867.
0.84, 0.838, 0.838, 0.838, 0.838.
0.857, 0.857, 0.857, 0.857, 0.857.
0.857, 0.857, 0.857, 0.857, 0.857.
0.842, 0.838, 0.838, 0.838, 0.838.
0.831, 0.829, 0.829, 0.829, 0.829.
0.789, 0.781, 0.778, 0.778, 0.778.
0.781, 0.781, 0.781, 0.781, 0.781.
0.763, 0.763, 0.763, 0.763, 0.763.
0.757, 0.757, 0.757, 0.757, 0.757.
0.727, 0.722, 0.722, 0.722, 0.722.
0.707, 0.699, 0.699, 0.701, 0.707.
0.722, 0.722, 0.722, 0.722, 0.722.
0.755, 0.778, 0.795, 0.811, 0.822.
0.757, 0.768, 0.778, 0.781, 0.781.
0.753, 0.757, 0.762, 0.763, 0.763.
0.695, 0.678, 0.678, 0.678, 0.678.
0.742, 0.759, 0.775, 0.784, 0.784.
0.753, 0.763, 0.763, 0.763, 0.763.
0.713, 0.701, 0.699, 0.701, 0.7.
0.775, 0.794, 0.801, 0.801, 0.797.
0.694, 0.673, 0.667, 0.667, 0.667.
0.701, 0.699, 0.701, 0.701, 0.7.
0.632, 0.626, 0.626, 0.632, 0.644.
0.619, 0.619, 0.619, 0.619, 0.619.
0.727, 0.753, 0.763, 0.763, 0.763.
0.742, 0.752, 0.753, 0.753, 0.753.
0.76, 0.761, 0.761, 0.761, 0.761.
0.789, 0.796, 0.798, 0.798, 0.798.
0.794, 0.798, 0.798, 0.798, 0.798.
0.748, 0.743, 0.742, 0.742, 0.742.
0.701, 0.687, 0.681, 0.678, 0.678.
0.602, 0.587, 0.591, 0.606, 0.619.
0.589, 0.601, 0.618, 0.635, 0.652.
0.651, 0.688, 0.719, 0.742, 0.759.
0.719, 0.742, 0.751, 0.753, 0.753.
0.73, 0.738, 0.742, 0.742, 0.742.
0.753, 0.761, 0.761, 0.761, 0.761.
0.763, 0.762, 0.762, 0.762, 0.762.
0.803, 0.814, 0.818, 0.818, 0.818.
0.818, 0.825, 0.825, 0.825, 0.825.
0.823, 0.827, 0.826, 0.826, 0.826.
0.787, 0.776, 0.768, 0.759, 0.749.
0.776, 0.768, 0.763, 0.763, 0.763.
0.733, 0.708, 0.699, 0.708, 0.722.
0.706, 0.699, 0.702, 0.705, 0.706.
0.745, 0.759, 0.775, 0.794, 0.806.
0.733, 0.733, 0.733, 0.733, 0.732.
0.81, 0.836, 0.855, 0.862, 0.859.
0.796, 0.802, 0.805, 0.806, 0.805.
0.821, 0.827, 0.827, 0.826, 0.823.
0.836, 0.835, 0.835, 0.835, 0.835.
0.843, 0.838, 0.828, 0.821, 0.815.
0.826, 0.816, 0.806, 0.797, 0.793.
0.852, 0.853, 0.853, 0.853, 0.853.
0.862, 0.864, 0.864, 0.864, 0.864.
0.872, 0.873, 0.873, 0.873, 0.873.
0.877, 0.882, 0.883, 0.883, 0.883.
0.893, 0.898, 0.902, 0.905, 0.905.
0.902, 0.905, 0.905, 0.905, 0.902.
0.905, 0.906, 0.905, 0.902, 0.898.
0.905, 0.905, 0.905, 0.902, 0.898.
0.905, 0.905, 0.905, 0.902, 0.898.
0.908, 0.904, 0.899, 0.899, 0.899.
0.908, 0.904, 0.898, 0.893, 0.886.
0.924, 0.926, 0.926, 0.926, 0.926.
0.937, 0.938, 0.938, 0.938, 0.938.
0.938, 0.937, 0.937, 0.937, 0.937.
0.942, 0.944, 0.945, 0.945, 0.944.
0.934, 0.934, 0.934, 0.934, 0.934.
0.926, 0.926, 0.928, 0.928, 0.928.
0.926, 0.928, 0.928, 0.928, 0.928.
0.904, 0.899, 0.899, 0.899, 0.899.
0.924, 0.928, 0.928, 0.928, 0.928.
0.921, 0.922, 0.923, 0.923, 0.923.
0.914, 0.914, 0.914, 0.914, 0.914.
0.914, 0.914, 0.914, 0.914, 0.914.
0.919, 0.922, 0.923, 0.923, 0.923.
0.926, 0.928, 0.928, 0.928, 0.928.
0.937, 0.942, 0.943, 0.943, 0.943.
0.918, 0.919, 0.919, 0.919, 0.919.
0.901, 0.896, 0.894, 0.894, 0.894.
0.892, 0.892, 0.892, 0.892, 0.892.
0.866, 0.868, 0.871, 0.873, 0.878.
0.84, 0.844, 0.852, 0.857, 0.857.
0.871, 0.884, 0.896, 0.904, 0.908.
0.857, 0.857, 0.857, 0.857, 0.857.
0.873, 0.878, 0.878, 0.878, 0.878.
0.852, 0.852, 0.857, 0.857, 0.857.
0.864, 0.868, 0.871, 0.871, 0.871.
0.877, 0.878, 0.878, 0.878, 0.878.
0.839, 0.831, 0.829, 0.829, 0.829.
0.839, 0.836, 0.831, 0.829, 0.829.
0.871, 0.878, 0.878, 0.878, 0.878.
0.867, 0.867, 0.867, 0.867, 0.867.
0.878, 0.878, 0.878, 0.878, 0.878.
0.878, 0.878, 0.878, 0.878, 0.878.
0.854, 0.845, 0.839, 0.839, 0.839.
0.811, 0.792, 0.783, 0.778, 0.778.
0.829, 0.829, 0.829, 0.829, 0.829.
0.85, 0.857, 0.857, 0.857, 0.857.
0.842, 0.842, 0.842, 0.842, 0.842.
0.887, 0.896, 0.899, 0.899, 0.899.
0.902, 0.902, 0.899, 0.899, 0.899.
0.899, 0.899, 0.899, 0.899, 0.899.
0.905, 0.905, 0.905, 0.902, 0.898.
0.916, 0.919, 0.921, 0.922, 0.923.
0.922, 0.922, 0.922, 0.922, 0.922.
0.906, 0.901, 0.899, 0.899, 0.899.
0.908, 0.906, 0.902, 0.898, 0.897.
0.919, 0.922, 0.923, 0.923, 0.923.
0.914, 0.914, 0.914, 0.914, 0.914.
0.901, 0.899, 0.899, 0.899, 0.899.
0.899, 0.899, 0.899, 0.899, 0.899.
0.899, 0.899, 0.899, 0.899, 0.899.
0.907, 0.907, 0.907, 0.905, 0.902.
0.916, 0.916, 0.916, 0.916, 0.916.
0.908, 0.905, 0.903, 0.903, 0.903.
0.899, 0.897, 0.897, 0.897, 0.897.
0.905, 0.905, 0.905, 0.905, 0.905.
0.902, 0.905, 0.905, 0.905, 0.905.
0.905, 0.905, 0.905, 0.905, 0.905.
0.921, 0.923, 0.924, 0.924, 0.924.
0.919, 0.919, 0.919, 0.919, 0.919.
0.918, 0.919, 0.919, 0.919, 0.919.
0.922, 0.923, 0.923, 0.923, 0.923.
0.905, 0.905, 0.905, 0.905, 0.905.
0.895, 0.895, 0.895, 0.895, 0.895.
0.867, 0.857, 0.852, 0.852, 0.852.
0.857, 0.857, 0.857, 0.857, 0.857.
0.809, 0.799, 0.798, 0.798, 0.798.
0.819, 0.819, 0.819, 0.819, 0.819.
0.795, 0.798, 0.798, 0.798, 0.798.
0.766, 0.757, 0.757, 0.757, 0.757.
0.757, 0.757, 0.757, 0.757, 0.757.
0.832, 0.838, 0.838, 0.838, 0.838.
0.832, 0.832, 0.832, 0.832, 0.832.
0.807, 0.797, 0.795, 0.795, 0.795.
0.778, 0.767, 0.763, 0.763, 0.763.
0.695, 0.678, 0.667, 0.657, 0.657.
0.695, 0.699, 0.711, 0.722, 0.732.
0.657, 0.657, 0.657, 0.657, 0.657.
0.666, 0.666, 0.666, 0.666, 0.666.
0.644, 0.644, 0.652, 0.667, 0.688.
0.711, 0.742, 0.769, 0.788, 0.798.
0.831, 0.857, 0.868, 0.873, 0.873.
0.839, 0.857, 0.864, 0.864, 0.859.
0.829, 0.829, 0.829, 0.829, 0.826.
0.874, 0.884, 0.886, 0.886, 0.881.
0.883, 0.884, 0.881, 0.871, 0.859.
0.866, 0.859, 0.849, 0.839, 0.829.
0.848, 0.839, 0.833, 0.829, 0.829.
0.852, 0.853, 0.853, 0.853, 0.853.
0.808, 0.794, 0.787, 0.787, 0.793.
0.798, 0.795, 0.793, 0.793, 0.793.
0.811, 0.816, 0.819, 0.819, 0.819.
0.836, 0.847, 0.853, 0.853, 0.853.
0.859, 0.864, 0.864, 0.864, 0.864.
0.873, 0.873, 0.868, 0.859, 0.845.
0.877, 0.875, 0.868, 0.859, 0.848.
0.877, 0.875, 0.868, 0.859, 0.848.
0.866, 0.857, 0.848, 0.839, 0.829.
0.829, 0.821, 0.815, 0.811, 0.811.
0.787, 0.771, 0.763, 0.763, 0.763.
0.781, 0.778, 0.778, 0.778, 0.778.
0.789, 0.795, 0.802, 0.809, 0.811.
0.801, 0.809, 0.817, 0.821, 0.822.
0.795, 0.802, 0.809, 0.814, 0.818.
0.836, 0.857, 0.864, 0.864, 0.864.
0.857, 0.868, 0.873, 0.873, 0.867.
0.863, 0.864, 0.864, 0.864, 0.864.
0.877, 0.882, 0.883, 0.881, 0.875.
0.875, 0.875, 0.875, 0.875, 0.875.
0.849, 0.839, 0.833, 0.829, 0.826.
0.853, 0.853, 0.853, 0.853, 0.853.
0.853, 0.853, 0.853, 0.853, 0.853.
0.835, 0.829, 0.829, 0.829, 0.829.
0.832, 0.829, 0.829, 0.829, 0.829.
0.826, 0.829, 0.831, 0.831, 0.831.
0.836, 0.838, 0.838, 0.838, 0.838.
0.857, 0.863, 0.864, 0.864, 0.864.
0.845, 0.846, 0.846, 0.846, 0.846.
0.836, 0.835, 0.835, 0.835, 0.835.
0.849, 0.851, 0.853, 0.853, 0.853.
0.852, 0.853, 0.853, 0.853, 0.853.
0.835, 0.831, 0.829, 0.829, 0.829.
0.801, 0.793, 0.793, 0.793, 0.793.
0.783, 0.781, 0.781, 0.781, 0.781.
0.787, 0.794, 0.802, 0.809, 0.811.
0.748, 0.739, 0.739, 0.739, 0.742.
0.732, 0.732, 0.734, 0.742, 0.755.
0.695, 0.698, 0.701, 0.701, 0.7.
0.678, 0.678, 0.678, 0.678, 0.678.
0.667, 0.667, 0.667, 0.667, 0.667.
0.657, 0.657, 0.657, 0.657, 0.657.
0.667, 0.678, 0.694, 0.711, 0.722.
0.707, 0.718, 0.725, 0.727, 0.727.
0.753, 0.773, 0.788, 0.795, 0.796.
0.711, 0.707, 0.707, 0.707, 0.705.
0.711, 0.711, 0.711, 0.711, 0.711.
0.699, 0.701, 0.701, 0.699, 0.699.
0.678, 0.678, 0.678, 0.678, 0.678.
0.632, 0.619, 0.619, 0.619, 0.619.
0.653, 0.657, 0.657, 0.657, 0.657.
0.753, 0.795, 0.818, 0.827, 0.827.
0.799, 0.812, 0.817, 0.818, 0.818.
0.862, 0.873, 0.873, 0.867, 0.859.
0.896, 0.902, 0.905, 0.902, 0.897.
0.914, 0.916, 0.916, 0.916, 0.916.
0.928, 0.928, 0.926, 0.922, 0.914.
0.909, 0.901, 0.894, 0.886, 0.876.
0.881, 0.859, 0.838, 0.821, 0.801.
0.895, 0.894, 0.894, 0.894, 0.894.
0.869, 0.859, 0.854, 0.853, 0.853.
0.869, 0.863, 0.857, 0.857, 0.857.
0.868, 0.863, 0.857, 0.857, 0.857.
0.883, 0.887, 0.887, 0.887, 0.887.
0.89, 0.897, 0.901, 0.905, 0.904.
0.892, 0.892, 0.892, 0.892, 0.892.
0.884, 0.883, 0.883, 0.883, 0.883.
0.884, 0.883, 0.883, 0.883, 0.883.
0.88, 0.876, 0.869, 0.861, 0.857.
0.866, 0.857, 0.848, 0.842, 0.838.
0.839, 0.829, 0.824, 0.822, 0.822.
0.829, 0.824, 0.822, 0.822, 0.822.
0.799, 0.795, 0.795, 0.795, 0.795.
0.747, 0.739, 0.744, 0.755, 0.763.
0.795, 0.808, 0.822, 0.839, 0.857.
0.857, 0.881, 0.896, 0.904, 0.907.
0.836, 0.838, 0.838, 0.838, 0.838.
0.863, 0.876, 0.881, 0.881, 0.881.
0.887, 0.896, 0.902, 0.902, 0.898.
0.887, 0.887, 0.887, 0.887, 0.887.
0.904, 0.902, 0.899, 0.899, 0.899.
0.912, 0.912, 0.912, 0.912, 0.912.
0.922, 0.922, 0.922, 0.922, 0.922.
0.927, 0.928, 0.928, 0.928, 0.928.
0.909, 0.902, 0.899, 0.899, 0.899.
0.885, 0.878, 0.878, 0.882, 0.883.
0.845, 0.839, 0.839, 0.839, 0.839.
0.779, 0.766, 0.763, 0.763, 0.763.
0.783, 0.781, 0.781, 0.781, 0.781.
0.804, 0.817, 0.825, 0.825, 0.825.
0.792, 0.792, 0.792, 0.792, 0.792.
0.798, 0.804, 0.808, 0.811, 0.811.
0.792, 0.792, 0.792, 0.792, 0.792.
0.763, 0.763, 0.763, 0.763, 0.763.
0.725, 0.708, 0.699, 0.699, 0.701.
0.711, 0.699, 0.699, 0.701, 0.706.
0.742, 0.755, 0.763, 0.767, 0.768.
0.755, 0.763, 0.763, 0.763, 0.763.
0.763, 0.771, 0.781, 0.798, 0.812.
0.783, 0.796, 0.808, 0.817, 0.822.
0.776, 0.781, 0.789, 0.796, 0.802.
0.763, 0.763, 0.763, 0.763, 0.763.
0.757, 0.759, 0.763, 0.763, 0.763.
0.742, 0.742, 0.742, 0.742, 0.742.
0.689, 0.673, 0.667, 0.667, 0.667.
0.613, 0.586, 0.567, 0.556, 0.556.
0.561, 0.556, 0.565, 0.578, 0.594.
0.588, 0.594, 0.594, 0.594, 0.598.
0.591, 0.606, 0.628, 0.651, 0.667.
0.461, 0.428, 0.416, 0.416, 0.419.
0.458, 0.463, 0.474, 0.494, 0.522.
0.395, 0.386, 0.394, 0.405, 0.418.
0.433, 0.451, 0.472, 0.494, 0.511.
0.465, 0.498, 0.522, 0.542, 0.565.
0.435, 0.435, 0.435, 0.435, 0.435.
0.468, 0.494, 0.511, 0.523, 0.539.
0.494, 0.511, 0.526, 0.543, 0.565.
0.502, 0.499, 0.499, 0.506, 0.523.
0.538, 0.543, 0.543, 0.543, 0.546.
0.495, 0.479, 0.472, 0.472, 0.472.
0.507, 0.507, 0.511, 0.516, 0.519.
0.511, 0.511, 0.511, 0.511, 0.511.
0.503, 0.507, 0.511, 0.516, 0.519.
0.503, 0.507, 0.511, 0.511, 0.511.
0.503, 0.503, 0.503, 0.503, 0.5.
0.511, 0.511, 0.516, 0.519, 0.519.
0.539, 0.543, 0.543, 0.543, 0.546.
0.577, 0.594, 0.609, 0.617, 0.619.
0.603, 0.617, 0.619, 0.619, 0.619.
0.594, 0.597, 0.597, 0.597, 0.597.
0.609, 0.617, 0.622, 0.627, 0.627.
0.562, 0.539, 0.523, 0.509, 0.499.
0.523, 0.503, 0.499, 0.506, 0.523.
0.539, 0.539, 0.539, 0.539, 0.539.
0.538, 0.539, 0.539, 0.539, 0.539.
0.565, 0.567, 0.567, 0.567, 0.567.
0.591, 0.606, 0.617, 0.622, 0.627.
0.622, 0.639, 0.653, 0.657, 0.657.
0.622, 0.627, 0.627, 0.627, 0.627.
0.653, 0.657, 0.657, 0.657, 0.657.
0.647, 0.649, 0.649, 0.649, 0.649.
0.601, 0.587, 0.589, 0.597, 0.606.
0.575, 0.575, 0.575, 0.575, 0.578.
0.601, 0.614, 0.619, 0.619, 0.619.
0.561, 0.554, 0.553, 0.553, 0.554.
0.457, 0.417, 0.405, 0.402, 0.405.
0.428, 0.416, 0.409, 0.405, 0.405.
0.452, 0.472, 0.507, 0.538, 0.551.
0.567, 0.606, 0.627, 0.638, 0.639.
0.728, 0.783, 0.803, 0.801, 0.788.
0.778, 0.803, 0.8, 0.785, 0.761.
0.789, 0.802, 0.801, 0.788, 0.772.
0.794, 0.795, 0.794, 0.794, 0.794.
0.786, 0.781, 0.764, 0.741, 0.722.
0.788, 0.787, 0.787, 0.787, 0.787.
0.735, 0.711, 0.699, 0.699, 0.697.
0.604, 0.54, 0.507, 0.491, 0.497.
0.557, 0.508, 0.485, 0.484, 0.501.
0.547, 0.543, 0.556, 0.577, 0.594.
0.606, 0.638, 0.667, 0.688, 0.701.
0.594, 0.606, 0.618, 0.635, 0.652.
0.566, 0.566, 0.566, 0.566, 0.566.
0.543, 0.539, 0.539, 0.539, 0.539.
0.523, 0.509, 0.491, 0.476, 0.472.
0.516, 0.516, 0.516, 0.516, 0.516.
0.574, 0.591, 0.594, 0.594, 0.594.
0.485, 0.472, 0.472, 0.472, 0.472.
0.417, 0.391, 0.383, 0.384, 0.396.
0.395, 0.389, 0.395, 0.405, 0.414.
0.435, 0.453, 0.472, 0.495, 0.522.
0.494, 0.522, 0.546, 0.565, 0.577.
0.538, 0.565, 0.588, 0.606, 0.618.
0.543, 0.565, 0.577, 0.578, 0.574.
0.516, 0.516, 0.516, 0.516, 0.516.
0.539, 0.556, 0.577, 0.598, 0.622.
0.539, 0.543, 0.543, 0.543, 0.543.
0.603, 0.617, 0.619, 0.619, 0.619.
0.706, 0.728, 0.734, 0.734, 0.727.
0.675, 0.667, 0.657, 0.657, 0.657.
0.479, 0.353, 0.292, 0.266, 0.259.
0.638, 0.669, 0.688, 0.701, 0.7.
0.84, 0.875, 0.879, 0.875, 0.861.
0.817, 0.821, 0.822, 0.822, 0.823.
0.599, 0.507, 0.461, 0.457, 0.457.
0.759, 0.763, 0.763, 0.763, 0.759.
0.904, 0.919, 0.919, 0.914, 0.901.
0.905, 0.901, 0.899, 0.899, 0.899.
0.891, 0.886, 0.876, 0.864, 0.854.
0.844, 0.813, 0.783, 0.763, 0.748.
0.835, 0.823, 0.815, 0.801, 0.787.
0.802, 0.783, 0.771, 0.763, 0.763.
0.803, 0.803, 0.803, 0.803, 0.803.
0.839, 0.857, 0.864, 0.864, 0.864.
0.836, 0.837, 0.837, 0.837, 0.837.
0.801, 0.781, 0.771, 0.763, 0.763.
0.857, 0.864, 0.864, 0.864, 0.864.
0.853, 0.853, 0.853, 0.853, 0.853.
0.839, 0.835, 0.835, 0.835, 0.835.
0.804, 0.784, 0.771, 0.763, 0.763.
0.794, 0.787, 0.787, 0.794, 0.804.
0.819, 0.819, 0.819, 0.819, 0.819.
0.849, 0.853, 0.853, 0.853, 0.853.
0.861, 0.864, 0.864, 0.864, 0.864.
0.871, 0.875, 0.875, 0.875, 0.875.
0.835, 0.831, 0.829, 0.829, 0.829.
0.821, 0.815, 0.811, 0.811, 0.811.
0.852, 0.863, 0.864, 0.864, 0.864.
0.779, 0.768, 0.763, 0.763, 0.763.
0.708, 0.695, 0.692, 0.694, 0.701.
0.713, 0.709, 0.707, 0.707, 0.707.
0.699, 0.699, 0.701, 0.699, 0.701.
0.72, 0.727, 0.732, 0.732, 0.732.
0.778, 0.788, 0.795, 0.795, 0.795.
0.809, 0.817, 0.821, 0.822, 0.822.
0.809, 0.811, 0.811, 0.811, 0.811.
0.801, 0.801, 0.797, 0.798, 0.8.
0.797, 0.797, 0.797, 0.797, 0.797.
0.787, 0.787, 0.787, 0.787, 0.787.
0.781, 0.783, 0.787, 0.787, 0.787.
0.808, 0.814, 0.814, 0.814, 0.814.
0.861, 0.874, 0.883, 0.889, 0.892.
0.932, 0.937, 0.937, 0.937, 0.937.
0.94, 0.942, 0.942, 0.942, 0.942.
0.937, 0.937, 0.937, 0.935, 0.932.
0.938, 0.937, 0.935, 0.932, 0.926.
0.924, 0.915, 0.908, 0.901, 0.894.
0.926, 0.926, 0.926, 0.926, 0.922.
0.926, 0.926, 0.926, 0.926, 0.926.
0.913, 0.904, 0.894, 0.885, 0.876.
0.876, 0.864, 0.856, 0.853, 0.853.
0.828, 0.804, 0.794, 0.792, 0.796.
0.747, 0.723, 0.711, 0.711, 0.723.
0.721, 0.711, 0.711, 0.716, 0.722.
0.763, 0.786, 0.808, 0.822, 0.832.
0.798, 0.819, 0.825, 0.825, 0.825.
0.811, 0.822, 0.825, 0.825, 0.825.
0.822, 0.825, 0.825, 0.825, 0.825.
0.822, 0.825, 0.829, 0.829, 0.829.
0.797, 0.787, 0.776, 0.767, 0.763.
0.828, 0.832, 0.832, 0.832, 0.832.
0.857, 0.868, 0.873, 0.873, 0.873.
0.873, 0.884, 0.893, 0.898, 0.9.
0.883, 0.893, 0.9, 0.904, 0.905.
0.86, 0.857, 0.857, 0.857, 0.857.
0.869, 0.873, 0.873, 0.873, 0.871.
0.893, 0.902, 0.905, 0.905, 0.905.
0.893, 0.896, 0.901, 0.905, 0.903.
0.879, 0.879, 0.879, 0.879, 0.879.
0.848, 0.839, 0.833, 0.826, 0.816.
0.863, 0.863, 0.861, 0.857, 0.857.
0.922, 0.927, 0.928, 0.928, 0.928.
0.896, 0.885, 0.871, 0.858, 0.848.
0.885, 0.875, 0.868, 0.863, 0.863.
0.889, 0.889, 0.891, 0.892, 0.892.
0.898, 0.902, 0.905, 0.905, 0.905.
0.893, 0.892, 0.892, 0.892, 0.892.
0.891, 0.892, 0.892, 0.892, 0.892.
0.902, 0.905, 0.905, 0.905, 0.905.
0.869, 0.863, 0.863, 0.863, 0.863.
0.791, 0.771, 0.763, 0.763, 0.763.
0.768, 0.763, 0.763, 0.763, 0.763.
0.778, 0.781, 0.781, 0.781, 0.781.
0.763, 0.763, 0.763, 0.763, 0.763.
0.763, 0.763, 0.763, 0.763, 0.763.
0.789, 0.801, 0.809, 0.811, 0.811.
0.783, 0.787, 0.787, 0.787, 0.787.
0.796, 0.802, 0.801, 0.798, 0.798.
0.902, 0.911, 0.912, 0.912, 0.912.
0.926, 0.926, 0.926, 0.926, 0.926.
0.94, 0.942, 0.942, 0.942, 0.942.
0.947, 0.947, 0.947, 0.947, 0.946.
0.951, 0.951, 0.951, 0.951, 0.948.
0.939, 0.936, 0.932, 0.928, 0.922.
0.865, 0.846, 0.839, 0.839, 0.839.
0.832, 0.825, 0.825, 0.825, 0.825.
0.91, 0.927, 0.939, 0.943, 0.943.
0.943, 0.947, 0.947, 0.947, 0.946.
0.947, 0.947, 0.947, 0.947, 0.946.
0.936, 0.932, 0.929, 0.926, 0.922.
0.904, 0.894, 0.885, 0.876, 0.868.
0.901, 0.892, 0.885, 0.882, 0.882.
0.88, 0.872, 0.862, 0.852, 0.852.
0.911, 0.914, 0.914, 0.914, 0.914.
0.942, 0.946, 0.946, 0.946, 0.946.
0.945, 0.946, 0.946, 0.946, 0.946.
0.929, 0.926, 0.926, 0.927, 0.928.
0.937, 0.939, 0.939, 0.939, 0.939.
0.942, 0.942, 0.941, 0.941, 0.941.
0.941, 0.941, 0.941, 0.941, 0.941.
0.942, 0.942, 0.942, 0.942, 0.942.
0.935, 0.936, 0.937, 0.939, 0.939.
0.928, 0.928, 0.928, 0.928, 0.928.
0.931, 0.931, 0.931, 0.931, 0.931.
0.937, 0.939, 0.939, 0.939, 0.939.
0.935, 0.935, 0.935, 0.935, 0.935.
0.946, 0.946, 0.946, 0.946, 0.946.
0.942, 0.942, 0.942, 0.942, 0.942.
0.94, 0.942, 0.942, 0.942, 0.942.
0.933, 0.932, 0.932, 0.932, 0.932.
0.926, 0.926, 0.926, 0.926, 0.926.
0.901, 0.892, 0.892, 0.892, 0.892.
0.892, 0.892, 0.892, 0.892, 0.892.
0.878, 0.873, 0.871, 0.871, 0.871.
0.878, 0.878, 0.878, 0.878, 0.878.
0.873, 0.871, 0.871, 0.871, 0.871.
0.857, 0.857, 0.857, 0.857, 0.857.
0.799, 0.792, 0.792, 0.792, 0.792.
0.747, 0.739, 0.742, 0.755, 0.778.
0.699, 0.699, 0.708, 0.722, 0.742.
0.702, 0.707, 0.707, 0.707, 0.708.
0.674, 0.678, 0.678, 0.678, 0.678.
0.698, 0.707, 0.707, 0.707, 0.707.
0.717, 0.722, 0.722, 0.722, 0.722.
0.722, 0.722, 0.722, 0.722, 0.722.
0.762, 0.778, 0.788, 0.798, 0.811.
0.838, 0.867, 0.881, 0.889, 0.889.
0.821, 0.825, 0.825, 0.826, 0.826.
0.811, 0.811, 0.811, 0.811, 0.811.
0.811, 0.811, 0.811, 0.811, 0.811.
0.827, 0.829, 0.829, 0.829, 0.826.
0.863, 0.874, 0.883, 0.886, 0.886.
0.867, 0.867, 0.865, 0.865, 0.865.
0.863, 0.863, 0.863, 0.862, 0.859.
0.839, 0.829, 0.821, 0.811, 0.798.
0.804, 0.794, 0.787, 0.784, 0.781.
0.763, 0.763, 0.763, 0.763, 0.763.
0.735, 0.733, 0.732, 0.732, 0.732.
0.722, 0.715, 0.711, 0.711, 0.711.
0.718, 0.711, 0.701, 0.699, 0.701.
0.722, 0.722, 0.722, 0.722, 0.722.
0.755, 0.762, 0.762, 0.762, 0.762.
0.742, 0.742, 0.742, 0.742, 0.742.
0.695, 0.678, 0.667, 0.667, 0.673.
0.533, 0.488, 0.471, 0.488, 0.524.
0.491, 0.491, 0.511, 0.526, 0.539.
0.444, 0.435, 0.435, 0.441, 0.452.
0.438, 0.439, 0.451, 0.472, 0.495.
0.494, 0.522, 0.546, 0.565, 0.579.
0.591, 0.638, 0.664, 0.679, 0.688.
0.678, 0.695, 0.699, 0.699, 0.699.
0.694, 0.701, 0.699, 0.699, 0.699.
0.786, 0.819, 0.837, 0.847, 0.847.
0.803, 0.818, 0.827, 0.828, 0.827.
0.817, 0.827, 0.829, 0.829, 0.829.
0.816, 0.818, 0.818, 0.818, 0.818.
0.803, 0.796, 0.796, 0.796, 0.796.
0.761, 0.735, 0.711, 0.699, 0.699.
0.735, 0.711, 0.699, 0.699, 0.699.
0.689, 0.673, 0.667, 0.667, 0.673.
0.634, 0.615, 0.616, 0.619, 0.622.
0.615, 0.616, 0.619, 0.619, 0.619.
0.655, 0.678, 0.694, 0.701, 0.699.
0.677, 0.694, 0.701, 0.699, 0.699.
0.688, 0.701, 0.699, 0.695, 0.693.
0.694, 0.695, 0.695, 0.695, 0.695.
0.678, 0.667, 0.657, 0.649, 0.649.
0.687, 0.687, 0.687, 0.687, 0.687.
0.673, 0.667, 0.667, 0.673, 0.688.
0.657, 0.648, 0.649, 0.657, 0.673.
0.657, 0.657, 0.657, 0.657, 0.657.
0.678, 0.694, 0.711, 0.727, 0.743.
0.678, 0.694, 0.711, 0.722, 0.727.
0.667, 0.673, 0.688, 0.707, 0.722.
0.676, 0.687, 0.701, 0.714, 0.722.
0.689, 0.701, 0.714, 0.722, 0.722.
0.704, 0.714, 0.717, 0.716, 0.716.
0.702, 0.705, 0.705, 0.705, 0.705.
0.743, 0.753, 0.753, 0.749, 0.741.
0.809, 0.822, 0.822, 0.822, 0.823.
0.821, 0.825, 0.825, 0.823, 0.823.
0.822, 0.822, 0.822, 0.822, 0.823.
0.829, 0.829, 0.829, 0.829, 0.829.
0.808, 0.797, 0.793, 0.793, 0.793.
0.787, 0.781, 0.781, 0.781, 0.781.
0.763, 0.755, 0.755, 0.755, 0.755.
0.742, 0.733, 0.729, 0.729, 0.729.
0.744, 0.742, 0.742, 0.742, 0.742.
0.732, 0.729, 0.729, 0.729, 0.729.
0.722, 0.722, 0.722, 0.722, 0.722.
0.709, 0.705, 0.705, 0.705, 0.705.
0.719, 0.722, 0.722, 0.722, 0.723.
0.657, 0.645, 0.639, 0.639, 0.639.
0.657, 0.657, 0.657, 0.657, 0.657.
0.632, 0.632, 0.633, 0.638, 0.652.
0.626, 0.626, 0.626, 0.626, 0.626.
0.641, 0.652, 0.667, 0.678, 0.688.
0.656, 0.678, 0.694, 0.701, 0.706.
0.697, 0.718, 0.732, 0.742, 0.753.
0.724, 0.735, 0.742, 0.751, 0.762.
0.773, 0.798, 0.818, 0.825, 0.825.
0.819, 0.837, 0.853, 0.857, 0.853.
0.857, 0.869, 0.873, 0.873, 0.867.
0.808, 0.797, 0.796, 0.798, 0.798.
0.797, 0.796, 0.796, 0.796, 0.796.
0.819, 0.823, 0.826, 0.826, 0.826.
0.83, 0.835, 0.835, 0.835, 0.835.
0.827, 0.826, 0.826, 0.826, 0.826.
0.805, 0.797, 0.796, 0.796, 0.796.
0.797, 0.796, 0.796, 0.796, 0.796.
0.816, 0.819, 0.819, 0.819, 0.819.
0.813, 0.814, 0.814, 0.814, 0.814.
0.787, 0.781, 0.772, 0.763, 0.755.
0.793, 0.793, 0.793, 0.793, 0.793.
0.793, 0.793, 0.793, 0.793, 0.793.
0.772, 0.763, 0.757, 0.755, 0.755.
0.755, 0.755, 0.755, 0.755, 0.755.
0.743, 0.742, 0.742, 0.742, 0.742.
0.718, 0.711, 0.709, 0.709, 0.711.
0.719, 0.719, 0.719, 0.722, 0.732.
0.716, 0.717, 0.722, 0.732, 0.743.
0.716, 0.716, 0.716, 0.716, 0.716.
0.723, 0.732, 0.743, 0.755, 0.762.
0.743, 0.755, 0.762, 0.763, 0.763.
0.758, 0.762, 0.762, 0.762, 0.762.
0.786, 0.796, 0.801, 0.801, 0.798.
0.796, 0.802, 0.805, 0.805, 0.805.
0.832, 0.838, 0.838, 0.838, 0.838.
0.843, 0.846, 0.846, 0.846, 0.846.
0.861, 0.861, 0.861, 0.861, 0.861.
0.861, 0.861, 0.861, 0.861, 0.861.
0.839, 0.833, 0.829, 0.826, 0.826.
0.829, 0.826, 0.826, 0.826, 0.826.
0.85, 0.852, 0.853, 0.853, 0.853.
0.867, 0.869, 0.869, 0.869, 0.869.
0.888, 0.893, 0.893, 0.893, 0.893.
0.884, 0.879, 0.869, 0.859, 0.848.
0.892, 0.892, 0.892, 0.892, 0.892.
0.885, 0.878, 0.869, 0.859, 0.848.
0.87, 0.863, 0.858, 0.854, 0.852.
0.835, 0.829, 0.829, 0.829, 0.829.
0.829, 0.829, 0.829, 0.829, 0.829.
0.811, 0.806, 0.803, 0.804, 0.809.
0.811, 0.811, 0.811, 0.811, 0.811.
0.787, 0.781, 0.781, 0.781, 0.781.
0.772, 0.763, 0.763, 0.763, 0.763.
0.781, 0.787, 0.794, 0.802, 0.808.
0.821, 0.835, 0.842, 0.842, 0.842.
0.891, 0.902, 0.902, 0.899, 0.899.
0.931, 0.934, 0.934, 0.934, 0.934.
0.937, 0.937, 0.937, 0.937, 0.935.
0.935, 0.934, 0.934, 0.934, 0.934.
0.918, 0.914, 0.914, 0.914, 0.914.
0.904, 0.899, 0.899, 0.899, 0.899.
0.885, 0.881, 0.881, 0.881, 0.881.
0.845, 0.839, 0.839, 0.839, 0.839.
0.796, 0.792, 0.796, 0.804, 0.812.
0.772, 0.763, 0.763, 0.763, 0.763.
0.839, 0.857, 0.864, 0.867, 0.867.
0.883, 0.904, 0.914, 0.917, 0.917.
0.888, 0.892, 0.892, 0.892, 0.892.
0.901, 0.904, 0.904, 0.904, 0.904.
0.914, 0.914, 0.914, 0.914, 0.914.
0.916, 0.914, 0.914, 0.914, 0.914.
0.902, 0.896, 0.894, 0.893, 0.893.
0.908, 0.904, 0.9, 0.898, 0.899.
0.916, 0.916, 0.916, 0.916, 0.916.
0.873, 0.863, 0.863, 0.868, 0.873.
0.91, 0.921, 0.929, 0.936, 0.938.
0.917, 0.922, 0.928, 0.933, 0.936.
0.873, 0.871, 0.871, 0.873, 0.873.
0.871, 0.871, 0.871, 0.871, 0.871.
0.91, 0.932, 0.937, 0.938, 0.938.
0.93, 0.937, 0.937, 0.934, 0.929.
0.95, 0.951, 0.948, 0.944, 0.939.
0.926, 0.917, 0.908, 0.902, 0.896.
0.921, 0.915, 0.908, 0.902, 0.897.
0.912, 0.907, 0.902, 0.899, 0.899.
0.883, 0.873, 0.871, 0.871, 0.873.
0.866, 0.867, 0.873, 0.884, 0.894.
0.839, 0.844, 0.857, 0.871, 0.883.
0.811, 0.811, 0.822, 0.839, 0.857.
0.852, 0.873, 0.884, 0.892, 0.898.
0.84, 0.852, 0.868, 0.879, 0.884.
0.85, 0.857, 0.857, 0.857, 0.857.
0.853, 0.853, 0.853, 0.853, 0.853.
0.863, 0.868, 0.871, 0.871, 0.871.
0.839, 0.839, 0.839, 0.839, 0.839.
0.791, 0.776, 0.766, 0.763, 0.763.
0.747, 0.733, 0.732, 0.732, 0.732.
0.794, 0.808, 0.822, 0.839, 0.857.
0.808, 0.822, 0.832, 0.842, 0.857.
0.748, 0.739, 0.739, 0.744, 0.755.
0.755, 0.763, 0.771, 0.778, 0.781.
0.695, 0.678, 0.678, 0.688, 0.701.
0.699, 0.699, 0.701, 0.701, 0.699.
0.842, 0.873, 0.881, 0.881, 0.881.
0.922, 0.931, 0.934, 0.934, 0.934.
0.938, 0.937, 0.935, 0.934, 0.934.
0.956, 0.954, 0.951, 0.948, 0.944.
0.951, 0.948, 0.944, 0.939, 0.934.
0.937, 0.932, 0.926, 0.921, 0.918.
0.871, 0.845, 0.839, 0.839, 0.839.
0.789, 0.783, 0.791, 0.808, 0.822.
0.633, 0.594, 0.591, 0.611, 0.635.
0.683, 0.704, 0.724, 0.742, 0.763.
0.783, 0.811, 0.822, 0.825, 0.825.
0.926, 0.934, 0.934, 0.934, 0.934.
0.947, 0.947, 0.947, 0.947, 0.944.
0.944, 0.944, 0.944, 0.944, 0.942.
0.953, 0.953, 0.953, 0.953, 0.951.
0.956, 0.954, 0.951, 0.948, 0.944.
0.955, 0.954, 0.953, 0.953, 0.953.
0.947, 0.944, 0.939, 0.934, 0.931.
0.928, 0.918, 0.913, 0.914, 0.914.
0.926, 0.922, 0.921, 0.922, 0.923.
0.928, 0.928, 0.928, 0.928, 0.928.
0.928, 0.928, 0.928, 0.928, 0.928.
0.927, 0.928, 0.928, 0.928, 0.928.
0.931, 0.932, 0.932, 0.932, 0.932.
0.937, 0.942, 0.943, 0.943, 0.942.
0.935, 0.936, 0.936, 0.936, 0.932.
0.928, 0.928, 0.928, 0.928, 0.928.
0.913, 0.903, 0.892, 0.885, 0.886.
0.881, 0.871, 0.863, 0.857, 0.857.
0.852, 0.835, 0.825, 0.819, 0.819.
0.857, 0.857, 0.857, 0.857, 0.857.
0.873, 0.883, 0.895, 0.904, 0.908.
0.874, 0.883, 0.895, 0.904, 0.908.
0.859, 0.857, 0.857, 0.857, 0.857.
0.792, 0.792, 0.804, 0.819, 0.827.
0.868, 0.884, 0.892, 0.898, 0.904.
0.874, 0.878, 0.878, 0.878, 0.878.
0.868, 0.871, 0.871, 0.871, 0.871.
0.887, 0.894, 0.897, 0.898, 0.898.
0.902, 0.905, 0.905, 0.905, 0.905.
0.936, 0.936, 0.936, 0.936, 0.936.
0.936, 0.937, 0.937, 0.938, 0.938.
0.938, 0.938, 0.938, 0.938, 0.938.
0.939, 0.939, 0.939, 0.939, 0.939.
0.942, 0.944, 0.945, 0.945, 0.944.
0.945, 0.945, 0.945, 0.945, 0.944.
0.947, 0.946, 0.946, 0.946, 0.944.
0.946, 0.946, 0.946, 0.946, 0.946.
0.946, 0.946, 0.946, 0.946, 0.946.
0.947, 0.946, 0.946, 0.946, 0.946.
0.947, 0.946, 0.946, 0.946, 0.946.
0.939, 0.932, 0.926, 0.923, 0.923.
0.944, 0.944, 0.945, 0.946, 0.946.
0.932, 0.926, 0.922, 0.922, 0.923.
0.926, 0.922, 0.921, 0.922, 0.923.
0.931, 0.931, 0.931, 0.931, 0.931.
0.937, 0.939, 0.939, 0.939, 0.939.
0.937, 0.937, 0.937, 0.937, 0.937.
0.931, 0.931, 0.931, 0.931, 0.931.
0.94, 0.942, 0.942, 0.942, 0.942.
0.937, 0.937, 0.937, 0.937, 0.937.
0.908, 0.899, 0.896, 0.894, 0.895.
0.876, 0.873, 0.873, 0.873, 0.873.
0.779, 0.766, 0.766, 0.771, 0.778.
0.778, 0.778, 0.778, 0.778, 0.778.
0.821, 0.842, 0.852, 0.859, 0.859.
0.83, 0.852, 0.868, 0.873, 0.873.
0.862, 0.886, 0.904, 0.914, 0.919.
0.84, 0.842, 0.842, 0.842, 0.842.
0.852, 0.852, 0.852, 0.852, 0.852.
0.809, 0.796, 0.792, 0.792, 0.792.
0.783, 0.778, 0.778, 0.778, 0.778.
0.732, 0.708, 0.699, 0.699, 0.701.
0.737, 0.739, 0.742, 0.742, 0.742.
0.707, 0.699, 0.699, 0.707, 0.722.
0.752, 0.768, 0.778, 0.788, 0.798.
0.768, 0.778, 0.781, 0.781, 0.781.
0.763, 0.763, 0.763, 0.763, 0.763.
0.695, 0.678, 0.678, 0.678, 0.678.
0.681, 0.678, 0.678, 0.678, 0.678.
0.825, 0.853, 0.868, 0.873, 0.873.
0.862, 0.878, 0.884, 0.881, 0.871.
0.887, 0.896, 0.899, 0.899, 0.899.
0.892, 0.892, 0.892, 0.892, 0.892.
0.875, 0.863, 0.848, 0.838, 0.829.
0.866, 0.859, 0.849, 0.839, 0.829.
0.796, 0.776, 0.772, 0.778, 0.791.
0.747, 0.733, 0.729, 0.729, 0.729.
0.633, 0.602, 0.588, 0.592, 0.611.
0.688, 0.711, 0.728, 0.742, 0.755.
0.644, 0.639, 0.639, 0.639, 0.639.
0.531, 0.498, 0.491, 0.507, 0.523.
0.494, 0.481, 0.494, 0.521, 0.552.
0.494, 0.491, 0.507, 0.523, 0.539.
0.495, 0.505, 0.516, 0.538, 0.564.
0.759, 0.804, 0.819, 0.825, 0.825.
0.883, 0.903, 0.903, 0.899, 0.899.
0.857, 0.857, 0.857, 0.857, 0.857.
0.857, 0.857, 0.857, 0.857, 0.857.
0.796, 0.766, 0.748, 0.748, 0.763.
0.763, 0.748, 0.748, 0.755, 0.763.
0.767, 0.763, 0.763, 0.763, 0.763.
0.763, 0.763, 0.763, 0.763, 0.763.
0.745, 0.748, 0.755, 0.763, 0.767.
0.684, 0.667, 0.664, 0.664, 0.664.
0.664, 0.647, 0.639, 0.639, 0.639.
0.684, 0.694, 0.701, 0.699, 0.699.
0.648, 0.638, 0.632, 0.632, 0.632.
0.653, 0.657, 0.657, 0.657, 0.657.
0.694, 0.711, 0.716, 0.716, 0.716.
0.701, 0.699, 0.699, 0.699, 0.699.
0.727, 0.729, 0.729, 0.729, 0.729.
0.718, 0.711, 0.701, 0.699, 0.699.
0.733, 0.732, 0.732, 0.732, 0.732.
0.717, 0.714, 0.714, 0.714, 0.714.
0.632, 0.602, 0.589, 0.596, 0.622.
0.673, 0.688, 0.711, 0.728, 0.742.
0.753, 0.795, 0.819, 0.827, 0.827.
0.743, 0.755, 0.763, 0.763, 0.757.
0.743, 0.743, 0.743, 0.743, 0.742.
0.761, 0.762, 0.761, 0.761, 0.761.
0.753, 0.753, 0.753, 0.753, 0.751.
0.755, 0.755, 0.755, 0.755, 0.755.
0.842, 0.853, 0.853, 0.853, 0.853.
0.827, 0.829, 0.829, 0.829, 0.829.
0.823, 0.818, 0.811, 0.801, 0.787.
0.797, 0.787, 0.781, 0.771, 0.763.
0.801, 0.797, 0.796, 0.797, 0.8.
0.767, 0.757, 0.755, 0.755, 0.755.
0.748, 0.742, 0.742, 0.742, 0.742.
0.778, 0.787, 0.794, 0.797, 0.797.
0.809, 0.817, 0.818, 0.819, 0.819.
0.817, 0.819, 0.819, 0.819, 0.819.
0.805, 0.805, 0.805, 0.805, 0.805.
0.793, 0.793, 0.793, 0.793, 0.793.
0.857, 0.864, 0.864, 0.864, 0.864.
0.829, 0.826, 0.826, 0.826, 0.826.
0.821, 0.817, 0.814, 0.814, 0.814.
0.826, 0.826, 0.826, 0.826, 0.826.
0.828, 0.829, 0.829, 0.829, 0.829.
0.821, 0.819, 0.819, 0.819, 0.819.
0.772, 0.763, 0.763, 0.763, 0.763.
0.75, 0.742, 0.742, 0.744, 0.744.
0.743, 0.742, 0.742, 0.742, 0.742.
0.838, 0.857, 0.863, 0.864, 0.864.
0.883, 0.894, 0.896, 0.896, 0.896.
0.873, 0.873, 0.869, 0.864, 0.859.
0.861, 0.861, 0.861, 0.861, 0.861.
0.839, 0.833, 0.831, 0.831, 0.831.
0.829, 0.823, 0.815, 0.809, 0.809.
0.832, 0.829, 0.829, 0.829, 0.829.
0.822, 0.819, 0.819, 0.819, 0.819.
0.826, 0.827, 0.829, 0.829, 0.829.
0.828, 0.828, 0.828, 0.828, 0.828.
0.778, 0.767, 0.763, 0.763, 0.763.
0.801, 0.801, 0.797, 0.798, 0.8.
0.875, 0.894, 0.902, 0.902, 0.898.
0.875, 0.875, 0.875, 0.875, 0.871.
0.894, 0.896, 0.896, 0.896, 0.896.
0.901, 0.901, 0.899, 0.899, 0.899.
0.87, 0.858, 0.848, 0.839, 0.835.
0.859, 0.849, 0.839, 0.835, 0.836.
0.835, 0.829, 0.829, 0.829, 0.829.
0.794, 0.783, 0.781, 0.781, 0.781.
0.796, 0.793, 0.793, 0.793, 0.793.
0.801, 0.801, 0.801, 0.801, 0.801.
0.802, 0.804, 0.804, 0.805, 0.805.
0.801, 0.798, 0.798, 0.801, 0.801.
0.801, 0.801, 0.801, 0.801, 0.8.
0.801, 0.801, 0.798, 0.798, 0.801.
0.767, 0.763, 0.763, 0.763, 0.763.
0.713, 0.699, 0.699, 0.701, 0.701.
0.699, 0.699, 0.699, 0.699, 0.701.
0.681, 0.678, 0.678, 0.678, 0.678.
0.664, 0.666, 0.666, 0.666, 0.667.
0.602, 0.586, 0.578, 0.578, 0.598.
0.524, 0.508, 0.508, 0.53, 0.565.
0.565, 0.598, 0.632, 0.664, 0.688.
0.606, 0.638, 0.665, 0.688, 0.701.
0.665, 0.694, 0.711, 0.717, 0.717.
0.766, 0.795, 0.804, 0.804, 0.799.
0.804, 0.817, 0.822, 0.822, 0.822.
0.817, 0.822, 0.822, 0.822, 0.822.
0.811, 0.804, 0.797, 0.796, 0.796.
0.797, 0.796, 0.796, 0.796, 0.796.
0.798, 0.797, 0.797, 0.797, 0.797.
0.787, 0.787, 0.787, 0.787, 0.787.
0.767, 0.757, 0.755, 0.755, 0.755.
0.789, 0.793, 0.796, 0.797, 0.797.
0.817, 0.821, 0.822, 0.822, 0.822.
0.835, 0.838, 0.838, 0.838, 0.838.
0.835, 0.835, 0.835, 0.835, 0.835.
0.835, 0.835, 0.835, 0.835, 0.835.
0.808, 0.796, 0.787, 0.776, 0.763.
0.787, 0.776, 0.767, 0.763, 0.763.
0.767, 0.757, 0.755, 0.755, 0.755.
0.748, 0.738, 0.733, 0.733, 0.742.
0.754, 0.755, 0.755, 0.755, 0.755.
0.744, 0.742, 0.742, 0.742, 0.742.
0.742, 0.742, 0.742, 0.742, 0.742.
0.717, 0.711, 0.711, 0.714, 0.722.
0.733, 0.744, 0.755, 0.762, 0.763.
0.718, 0.718, 0.722, 0.732, 0.743.
0.711, 0.713, 0.717, 0.722, 0.732.
0.701, 0.7, 0.7, 0.7, 0.7.
0.723, 0.732, 0.744, 0.755, 0.763.
0.744, 0.755, 0.762, 0.763, 0.763.
0.743, 0.742, 0.742, 0.742, 0.742.
0.743, 0.742, 0.742, 0.742, 0.742.
0.743, 0.742, 0.742, 0.742, 0.742.
0.738, 0.742, 0.742, 0.742, 0.742.
0.732, 0.732, 0.732, 0.733, 0.733.
0.741, 0.742, 0.742, 0.742, 0.742.
0.758, 0.761, 0.761, 0.761, 0.761.
0.763, 0.761, 0.761, 0.761, 0.761.
0.783, 0.784, 0.781, 0.781, 0.781.
0.784, 0.781, 0.781, 0.781, 0.781.
0.79, 0.786, 0.781, 0.771, 0.761.
0.787, 0.784, 0.781, 0.781, 0.781.
0.797, 0.798, 0.798, 0.798, 0.798.
0.781, 0.781, 0.781, 0.781, 0.781.
0.784, 0.781, 0.781, 0.781, 0.781.
0.763, 0.761, 0.761, 0.761, 0.761.
0.781, 0.781, 0.781, 0.781, 0.781.
0.781, 0.781, 0.781, 0.781, 0.781.
0.797, 0.798, 0.797, 0.797, 0.797.
0.789, 0.787, 0.787, 0.787, 0.787.
0.748, 0.742, 0.742, 0.742, 0.742.
0.76, 0.761, 0.762, 0.762, 0.762.
0.735, 0.731, 0.731, 0.731, 0.731.
0.755, 0.762, 0.762, 0.762, 0.762.
0.778, 0.784, 0.784, 0.783, 0.783.
0.778, 0.781, 0.783, 0.783, 0.783.
0.768, 0.763, 0.762, 0.762, 0.762.
0.802, 0.806, 0.808, 0.808, 0.808.
0.817, 0.823, 0.826, 0.826, 0.826.
0.823, 0.823, 0.823, 0.823, 0.823.
0.826, 0.826, 0.826, 0.826, 0.826.
0.823, 0.823, 0.823, 0.823, 0.823.
0.837, 0.838, 0.838, 0.838, 0.838.
0.838, 0.838, 0.838, 0.838, 0.838.
0.838, 0.838, 0.838, 0.838, 0.838.
0.829, 0.826, 0.826, 0.826, 0.826.
0.828, 0.829, 0.829, 0.829, 0.829.
0.819, 0.819, 0.819, 0.819, 0.819.
0.787, 0.781, 0.781, 0.781, 0.781.
0.786, 0.787, 0.787, 0.787, 0.787.
0.763, 0.756, 0.755, 0.755, 0.755.
0.725, 0.711, 0.701, 0.699, 0.699.
0.729, 0.729, 0.729, 0.729, 0.731.
0.711, 0.701, 0.699, 0.699, 0.701.
0.699, 0.699, 0.701, 0.701, 0.7.
0.743, 0.755, 0.762, 0.763, 0.763.
0.763, 0.778, 0.788, 0.796, 0.8.
0.76, 0.763, 0.763, 0.763, 0.763.
0.725, 0.719, 0.719, 0.719, 0.719.
0.701, 0.699, 0.699, 0.701, 0.706.
0.716, 0.724, 0.732, 0.742, 0.755.
0.755, 0.775, 0.788, 0.796, 0.8.
0.742, 0.742, 0.742, 0.742, 0.742.
0.732, 0.732, 0.732, 0.732, 0.733.
0.742, 0.742, 0.742, 0.742, 0.742.
0.819, 0.835, 0.842, 0.842, 0.842.
0.82, 0.827, 0.828, 0.826, 0.823.
0.835, 0.835, 0.835, 0.835, 0.835.
0.842, 0.838, 0.835, 0.835, 0.835.
0.843, 0.838, 0.835, 0.835, 0.835.
0.835, 0.829, 0.826, 0.826, 0.826.
0.835, 0.835, 0.835, 0.835, 0.835.
0.835, 0.835, 0.835, 0.835, 0.835.
0.843, 0.842, 0.842, 0.842, 0.842.
0.838, 0.835, 0.835, 0.835, 0.835.
0.826, 0.826, 0.826, 0.826, 0.826.
0.811, 0.801, 0.797, 0.801, 0.8.
0.801, 0.797, 0.801, 0.801, 0.798.
0.801, 0.797, 0.796, 0.798, 0.8.
0.817, 0.818, 0.818, 0.818, 0.818.
0.824, 0.826, 0.826, 0.826, 0.826.
0.826, 0.826, 0.826, 0.826, 0.826.
0.835, 0.835, 0.835, 0.835, 0.835.
0.824, 0.826, 0.826, 0.826, 0.826.
0.826, 0.826, 0.826, 0.826, 0.828.
0.826, 0.826, 0.826, 0.826, 0.826.
0.842, 0.842, 0.842, 0.842, 0.842.
0.861, 0.864, 0.864, 0.864, 0.864.
0.874, 0.875, 0.875, 0.875, 0.875.
0.871, 0.871, 0.871, 0.871, 0.871.
0.871, 0.871, 0.871, 0.871, 0.871.
0.875, 0.875, 0.875, 0.875, 0.875.
0.843, 0.835, 0.835, 0.836, 0.836.
0.831, 0.829, 0.829, 0.829, 0.829.
0.801, 0.791, 0.791, 0.791, 0.791.
0.791, 0.791, 0.791, 0.791, 0.791.
0.781, 0.781, 0.781, 0.781, 0.781.
0.763, 0.755, 0.755, 0.755, 0.755.
0.755, 0.755, 0.755, 0.755, 0.755.
0.742, 0.742, 0.742, 0.742, 0.742.
0.733, 0.731, 0.731, 0.731, 0.731.
0.699, 0.699, 0.701, 0.701, 0.7.
0.681, 0.678, 0.678, 0.678, 0.678.
0.644, 0.639, 0.639, 0.639, 0.639.
0.655, 0.657, 0.657, 0.657, 0.657.
0.678, 0.688, 0.701, 0.709, 0.717.
0.667, 0.667, 0.673, 0.688, 0.701.
0.678, 0.688, 0.701, 0.709, 0.717.
0.707, 0.718, 0.727, 0.734, 0.742.
0.763, 0.788, 0.802, 0.804, 0.804.
0.775, 0.788, 0.796, 0.802, 0.804.
0.786, 0.796, 0.801, 0.801, 0.798.
0.768, 0.763, 0.763, 0.763, 0.763.
0.767, 0.763, 0.763, 0.763, 0.763.
0.808, 0.817, 0.818, 0.818, 0.814.
0.801, 0.798, 0.798, 0.798, 0.798.
0.801, 0.798, 0.798, 0.798, 0.798.
0.822, 0.827, 0.827, 0.826, 0.826.
0.836, 0.838, 0.838, 0.838, 0.838.
0.835, 0.835, 0.835, 0.835, 0.835.
0.84, 0.838, 0.835, 0.835, 0.835.
0.843, 0.838, 0.835, 0.835, 0.835.
0.843, 0.838, 0.835, 0.835, 0.835.
0.822, 0.809, 0.797, 0.793, 0.793.
0.787, 0.767, 0.748, 0.734, 0.729.
0.783, 0.781, 0.781, 0.781, 0.781.
0.767, 0.763, 0.763, 0.763, 0.763.
0.748, 0.743, 0.742, 0.742, 0.742.
0.704, 0.699, 0.701, 0.701, 0.701.
0.723, 0.732, 0.744, 0.755, 0.763.
